ply
format ascii 1.0
element vertex 683
property float x
property float y
property float z
property float nx
property float ny
property float nz
property uchar diffuse_red
property uchar diffuse_green
property uchar diffuse_blue
end_header
-0.316445 0.0133807 1.68076 -0.453142 -0.0398005 -0.890549 167 157 162
-0.30671 0.0133911 1.6772 -0.436484 0.0883774 -0.895361 168 159 163
-0.296428 0.0133796 1.67033 -0.473623 0.109559 -0.873887 168 159 163
-0.282408 0.00921402 1.65588 -0.575407 0.0937003 -0.812482 163 153 159
-0.27364 0.0139977 1.65497 -0.500519 0.00124531 -0.865725 164 154 158
-0.212481 0.0106826 1.61623 -0.459135 -0.0925724 -0.88353 148 135 146
-0.204383 0.0100883 1.61447 -0.454803 0.13068 -0.880952 146 134 143
-0.195826 0.00988716 1.60996 -0.45354 0.147262 -0.878986 144 131 140
-0.184847 0.00989985 1.6054 -0.485251 0.297841 -0.822084 138 125 134
-0.174311 0.00989716 1.59916 -0.470358 0.236056 -0.850318 133 120 129
-0.164194 0.0121931 1.59364 -0.52355 0.214362 -0.824587 136 122 131
-0.148762 0.00714749 1.58351 -0.402869 0.147693 -0.903263 111 98 105
-0.132664 0.00932727 1.57585 -0.571754 0.346672 -0.743583 111 98 105
-0.12413 0.00730139 1.57118 -0.412845 -0.0182671 -0.910618 104 91 97
-0.115123 0.00730153 1.56608 -0.518991 -0.0627233 -0.852475 101 88 94
-0.0849809 0.0103675 1.54472 -0.75804 0.235382 -0.608253 103 91 95
-0.048771 0.0108317 1.52534 -0.51977 -0.56269 -0.642821 102 89 92
-0.0394229 0.0117394 1.52028 -0.550456 -0.634026 -0.543147 102 90 93
-0.0246724 0.00657037 1.5008 -0.688064 -0.478446 -0.545579 97 86 91
0.00541161 0.0109554 1.45081 -0.335251 -0.641409 -0.690073 107 96 99
0.0054117 0.0109556 1.45083 -0.334532 -0.642017 -0.689857 107 96 99
0.0054117 0.0109556 1.45083 -0.334532 -0.642017 -0.689857 107 96 99
0.381519 0.00902586 1.97028 -0.779446 0.0238674 -0.626015 99 92 89
0.390348 0.0159674 1.96914 -0.823734 0.100044 -0.55808 100 94 90
0.400748 0.0165448 1.95433 -0.887742 -0.0519188 -0.457405 105 98 93
0.412765 0.0164766 1.94625 -0.00164802 0.0445061 -0.999008 109 105 99
0.439138 0.0143195 1.94206 -0.74518 -0.242971 -0.621025 128 122 114
0.448692 0.0101736 1.9354 -0.74489 -0.283394 -0.604009 129 125 118
0.477046 0.00993319 1.92943 -0.921021 0.260722 -0.289387 122 115 111
0.511953 0.0156791 1.90528 -0.947383 0.178853 -0.265475 121 119 115
0.528706 0.0133161 1.89264 0.105944 0.380952 -0.918505 117 117 112
0.534777 0.0137636 1.87646 0.293644 -0.617193 -0.729963 115 115 110
0.549406 0.0138655 1.88549 -0.364573 -0.4766 -0.799962 112 109 104
0.556176 0.0146341 1.87705 -0.82196 -0.339212 -0.457511 112 108 102
0.566456 0.00792286 1.87905 -0.303331 -0.5143 -0.802175 115 113 110
0.579857 0.0124124 1.86406 -0.528734 -0.428386 -0.732752 115 115 111
0.588283 0.0159247 1.85577 -0.658078 -0.569052 -0.493065 115 115 110
0.599308 0.0159312 1.85173 -0.432647 -0.4634 -0.773355 116 116 110
0.614477 0.00853789 1.85281 -0.213371 -0.86221 -0.45942 115 117 112
0.617387 0.0107489 1.84599 -0.45693 -0.477136 -0.750704 116 117 114
0.626796 0.0148391 1.83767 -0.572861 0.135561 -0.808365 111 110 105
0.648807 0.0144619 1.824 -0.658824 0.0959536 -0.746153 111 114 110
0.658817 0.0144239 1.81464 -0.515461 -0.47859 -0.710811 114 116 112
-0.373578 0.0218667 1.70308 -0.273079 -0.00176423 -0.96199 163 157 157
-0.360357 0.0216682 1.68479 -0.47545 -0.406375 -0.780261 164 156 156
-0.349874 0.0240189 1.69195 -0.651004 -0.410797 -0.63831 165 156 158
-0.339305 0.0157675 1.68963 -0.439619 -0.406071 -0.80115 167 158 161
-0.32143 0.0231211 1.68184 -0.641117 -0.446128 -0.624451 167 158 159
-0.309974 0.0228673 1.67304 -0.20906 -0.293873 -0.932702 167 158 159
-0.300282 0.0231404 1.6704 -0.549014 -0.486818 -0.679406 168 160 162
-0.291391 0.0168469 1.66987 -0.414214 0.0146433 -0.910062 169 160 163
-0.281196 0.0215684 1.66058 -0.733211 0.217471 -0.644289 169 160 162
-0.281302 0.0185814 1.65866 -0.639757 0.121117 -0.758974 169 160 163
-0.263307 0.0195076 1.63863 -0.287893 0.400811 -0.869752 142 132 136
-0.244658 0.0228762 1.63033 -0.546107 0.194969 -0.814711 156 145 150
-0.234985 0.0228918 1.62771 -0.508989 -0.597659 -0.619463 155 142 149
-0.227932 0.0192837 1.62746 -0.220963 -0.376447 -0.899702 149 137 143
-0.218532 0.0192949 1.62325 -0.463848 -0.230092 -0.855513 154 141 150
-0.209359 0.0192998 1.61967 -0.390467 -0.174258 -0.903974 155 142 151
-0.200679 0.0193517 1.61874 -0.497048 -0.0085266 -0.867681 152 140 149
-0.169813 0.0209471 1.59941 -0.507852 0.0627232 -0.859158 145 132 140
-0.16106 0.0230341 1.59586 -0.541362 0.0541916 -0.839041 146 132 141
-0.154782 0.0151776 1.58918 -0.524376 0.162793 -0.83578 141 127 134
-0.145318 0.0181583 1.58487 -0.544389 0.176594 -0.820034 144 130 137
-0.139195 0.0161051 1.58102 -0.520388 0.138044 -0.842698 135 122 128
-0.130845 0.0202493 1.57712 -0.592354 0.104498 -0.798872 143 130 137
-0.121349 0.0187246 1.57558 -0.581393 -0.316362 -0.749599 131 118 126
-0.112231 0.0167 1.57044 -0.586965 -0.268826 -0.763678 122 109 114
-0.107558 0.0211802 1.5696 -0.531937 -0.37799 -0.757738 130 116 122
-0.0984846 0.0200824 1.56496 -0.550392 -0.315324 -0.773071 122 110 114
-0.0898619 0.0193996 1.55107 -0.587526 0.408122 -0.698748 121 109 113
-0.0708482 0.0153122 1.54003 -0.616975 0.400971 -0.677174 106 94 99
-0.0621569 0.0187001 1.53678 -0.546978 0.0678403 -0.834394 110 98 102
-0.0537716 0.018673 1.53029 -0.425086 -0.205421 -0.881535 111 98 102
-0.0272523 0.0143941 1.50943 -0.637479 -0.542537 -0.54706 103 92 96
-0.0272529 0.0143944 1.50947 -0.638824 -0.54023 -0.547773 103 92 96
-0.0266348 0.0145049 1.50792 -0.629434 -0.559712 -0.539013 104 92 96
-0.0266348 0.0145049 1.50792 -0.629434 -0.559712 -0.539013 104 92 96
-0.0234419 0.0167155 1.50803 -0.655568 -0.526887 -0.540945 106 94 97
0.382778 0.0241108 1.97284 -0.440685 0.56354 -0.698727 99 94 90
0.392816 0.024406 1.96277 -0.826159 0.257222 -0.501297 101 96 90
0.411861 0.0201459 1.94754 -0.456693 -0.277769 -0.845148 108 103 98
0.411862 0.0201459 1.94754 -0.454912 -0.28105 -0.845024 108 103 98
0.430895 0.0224095 1.95085 -0.699746 -0.247819 -0.670031 120 116 109
0.445028 0.023028 1.93767 -0.445418 -0.0888459 -0.890904 126 118 111
0.459206 0.0249109 1.92875 -0.684628 0.530044 -0.500338 129 125 120
0.466554 0.0181095 1.92809 -0.52211 -0.108339 -0.845969 131 126 121
0.532877 0.0175861 1.87307 0.483151 -0.528421 -0.698095 117 117 112
0.560584 0.0268862 1.87317 -0.107648 0.504343 -0.856767 115 114 108
0.566763 0.0179897 1.87363 -0.34705 -0.360654 -0.865728 114 114 109
0.580965 0.0233643 1.85691 -0.233505 0.385427 -0.892705 114 114 109
0.61134 0.0197995 1.84958 -0.0737697 0.476676 -0.875979 116 118 112
0.61879 0.0229724 1.84149 -0.542325 -0.334728 -0.770611 114 116 110
0.637109 0.0189486 1.83203 -0.447374 -0.342093 -0.826334 109 109 104
0.652648 0.0210346 1.81998 -0.861496 0.121803 -0.492939 112 116 113
-0.367663 0.030731 1.69723 -0.479717 0.400555 -0.780658 163 155 155
-0.337488 0.0260214 1.69083 -0.681742 -0.309172 -0.663054 165 157 159
-0.295635 0.0260808 1.66892 -0.614106 -0.503359 -0.607867 168 160 161
-0.268646 0.0310687 1.64592 -0.230179 0.471061 -0.851539 164 154 155
-0.254603 0.0310388 1.63972 -0.431467 0.434137 -0.790798 147 136 139
-0.250151 0.0320583 1.63881 -0.590224 0.366462 -0.719264 152 141 144
-0.239925 0.0320102 1.6326 -0.353478 0.0937467 -0.930734 157 145 149
-0.224626 0.028472 1.62611 -0.266309 0.189344 -0.945108 160 147 153
-0.21529 0.0284999 1.62252 -0.361799 -0.333084 -0.870722 159 145 152
-0.206042 0.0286699 1.62693 -0.354983 -0.650439 -0.671503 156 143 151
-0.195643 0.0285046 1.61223 -0.677664 -0.0291304 -0.734795 153 140 147
-0.18698 0.0276031 1.61056 -0.683239 -0.339509 -0.646466 153 141 148
-0.17661 0.0270675 1.60118 -0.563426 -0.408605 -0.718048 153 140 149
-0.167821 0.0290751 1.59638 -0.439987 -0.359808 -0.822769 156 143 151
-0.168277 0.0313229 1.59702 -0.348032 -0.259293 -0.900911 151 139 147
-0.151329 0.0261923 1.59039 -0.431303 -0.0979399 -0.896876 145 131 139
-0.138916 0.0245588 1.58237 -0.511404 -0.0901125 -0.854603 146 132 140
-0.132039 0.0303537 1.57974 -0.503468 -0.0489539 -0.862626 143 130 138
-0.123455 0.0272628 1.57423 -0.502768 -0.12688 -0.855059 146 133 141
-0.114782 0.0272676 1.56973 -0.473709 -0.175167 -0.863085 147 134 142
-0.106354 0.0237913 1.56582 -0.593061 -0.145844 -0.791839 137 124 130
-0.100013 0.0300148 1.56273 -0.528839 -0.0885149 -0.844094 145 132 139
-0.0761729 0.0238669 1.54481 -0.611378 0.399126 -0.683312 126 113 117
-0.0670883 0.0270278 1.55289 -0.606778 0.227396 -0.761651 121 109 113
-0.0266935 0.0241033 1.51487 -0.606744 -0.255082 -0.752857 115 103 106
-0.0260336 0.023311 1.51778 -0.532122 -0.465288 -0.707356 113 101 103
-0.0163725 0.0221027 1.51102 -0.686848 -0.527506 -0.499977 109 97 100
0.406434 0.0286853 1.95095 -0.162399 0.553007 -0.817196 105 99 94
0.420105 0.0286539 1.94857 -0.0166467 0.0986213 -0.994986 109 105 100
0.433666 0.0299776 1.94786 -0.876241 -0.0522436 -0.479033 119 111 103
0.436215 0.0310282 1.94438 -0.882914 -0.087163 -0.461374 119 111 103
0.450962 0.0322243 1.93182 -0.626757 0.0915192 -0.773821 128 121 116
0.551354 0.0299284 1.88017 0.432949 -0.103289 -0.895481 119 116 112
0.563661 0.034002 1.8749 -0.610671 0.419346 -0.671736 115 115 110
0.582409 0.0349182 1.86589 -0.553596 -0.0654442 -0.83021 112 114 109
0.591269 0.0301678 1.86019 -0.532001 0.19264 -0.824539 112 113 107
0.600147 0.0326137 1.85253 -0.834611 0.244774 -0.493468 110 110 104
0.615839 0.0326455 1.85031 -0.245452 0.299898 -0.921854 114 116 110
0.629589 0.0271013 1.83734 -0.735337 -0.023967 -0.677277 110 110 104
0.636665 0.0332892 1.83062 -0.618578 0.00394957 -0.785713 112 113 108
0.64237 0.0272105 1.81766 -0.850125 -0.0213561 -0.526149 112 115 112
0.653237 0.0330776 1.81656 -0.788027 -0.0169353 -0.615407 114 117 114
-0.348216 0.0371864 1.68952 -0.387188 -0.288834 -0.875592 163 156 157
-0.335983 0.0369931 1.67609 -0.0942031 0.475681 -0.874559 166 157 159
-0.295089 0.0389778 1.66271 -0.536099 -0.47536 -0.697589 167 158 161
-0.274142 0.0377759 1.6475 0.22078 0.40138 -0.888904 168 158 159
-0.274142 0.0377759 1.6475 0.22078 0.40138 -0.888904 168 158 159
-0.274142 0.0377759 1.6475 0.22078 0.40138 -0.888904 168 158 159
-0.257207 0.0397322 1.64559 -0.507461 0.403827 -0.761188 169 158 159
-0.229047 0.0325151 1.62763 -0.45286 -0.0462595 -0.890381 161 149 154
-0.220077 0.0386104 1.62373 -0.459092 -0.192007 -0.867392 160 147 152
-0.208956 0.0388975 1.61789 -0.548814 -0.0470949 -0.834617 162 149 152
-0.202762 0.037939 1.61298 -0.527586 -0.0402389 -0.848548 164 151 153
-0.184615 0.0375083 1.60564 -0.562108 -0.329574 -0.758562 160 147 152
-0.173964 0.0395266 1.60021 -0.424456 -0.087949 -0.901167 159 146 152
-0.159685 0.033661 1.59278 -0.503549 -0.186258 -0.843651 152 138 146
-0.151146 0.0373639 1.58943 -0.419511 -0.103569 -0.901823 148 134 142
-0.140067 0.0346612 1.58434 -0.476776 -0.0302716 -0.878504 157 143 152
-0.128642 0.0357826 1.57695 -0.425795 -0.251162 -0.869262 154 140 149
-0.119898 0.0357372 1.57139 -0.378801 -0.137187 -0.915254 148 135 143
-0.109024 0.0343999 1.56678 -0.473986 -0.12986 -0.870904 139 126 135
-0.0946722 0.0371301 1.55886 -0.527454 -0.1709 -0.832217 135 122 130
-0.0859756 0.0356372 1.55506 -0.524184 -0.249849 -0.81413 143 130 136
-0.0771644 0.0349651 1.55151 -0.527392 -0.326129 -0.784537 145 132 137
-0.0681916 0.0350363 1.54881 -0.488126 -0.430268 -0.759343 141 128 132
-0.0590371 0.035096 1.54596 -0.449555 -0.473658 -0.75733 134 122 126
-0.0416178 0.0308464 1.53894 -0.350508 -0.394037 -0.849635 121 108 110
0.38139 0.0395917 1.97968 -0.127086 0.544898 -0.828816 100 94 89
0.3898 0.0479532 1.97038 -0.903862 0.10007 -0.415957 101 96 89
0.39759 0.0398954 1.96252 -0.886551 -0.0178294 -0.462287 102 95 89
0.413167 0.0408306 1.95037 -0.435334 -0.331031 -0.8372 107 100 95
0.425346 0.0406453 1.94125 -0.617328 0.317979 -0.71958 110 107 102
0.43823 0.0431399 1.93751 -0.844665 0.170675 -0.507357 124 119 112
0.442133 0.0397241 1.93324 -0.863685 0.0109479 -0.503913 127 121 114
0.449468 0.0472866 1.92457 -0.65755 0.26233 -0.706265 130 123 118
0.557913 0.0444092 1.88034 -0.742661 0.333875 -0.580502 117 117 111
0.575012 0.0428091 1.87303 -0.573603 0.171779 -0.800919 114 114 109
0.608863 0.0380878 1.84221 -0.835193 0.30342 -0.458682 114 115 109
0.619701 0.04457 1.84333 -0.883557 -0.199408 -0.423749 113 114 111
0.628399 0.0389418 1.83499 -0.875762 -0.289293 -0.386459 112 113 109
0.643822 0.0391086 1.82157 -0.579109 0.0163585 -0.815086 113 116 111
0.653302 0.0449007 1.81805 -0.683979 -0.027198 -0.728995 113 117 114
-0.592261 0.0666829 2.36716 -0.297608 0.321576 -0.898899 155 155 156
-0.577263 0.0666031 2.35896 -0.471047 -0.0112465 -0.882037 159 159 160
-0.563126 0.0687938 2.35917 0.0488484 -0.235699 -0.970598 158 156 157
-0.245151 0.0411994 1.63934 -0.553657 0.325613 -0.766447 167 156 157
-0.234595 0.04108 1.63083 -0.355678 -0.166556 -0.919648 168 156 159
-0.230655 0.0458125 1.63258 -0.565981 0.379971 -0.731633 169 157 159
-0.224348 0.0485091 1.62777 -0.564456 0.117035 -0.817124 170 157 160
-0.219297 0.0482647 1.62602 -0.589118 0.281833 -0.757304 169 156 159
-0.214255 0.0484987 1.6217 -0.48926 0.148734 -0.859362 168 155 158
-0.188171 0.046838 1.60715 -0.47845 -0.0165754 -0.877959 162 150 152
-0.179151 0.0468564 1.60283 -0.407761 0.00346816 -0.913082 168 155 158
-0.171055 0.0468019 1.59843 -0.542901 -0.0514195 -0.838221 164 151 156
-0.161747 0.0467719 1.59315 -0.48395 -0.0406914 -0.874149 165 152 157
-0.144981 0.0453682 1.58245 -0.555905 -0.145815 -0.818357 149 136 143
-0.132808 0.0403603 1.57722 -0.459609 -0.241102 -0.854769 151 137 146
-0.120835 0.0464662 1.56982 -0.30005 -0.241056 -0.922964 146 132 140
-0.112388 0.0465136 1.56732 -0.481359 -0.108577 -0.869773 151 137 146
-0.103128 0.0396754 1.56245 -0.469921 -0.0135117 -0.882605 144 131 141
-0.0978564 0.046828 1.55966 -0.452543 -0.108443 -0.885124 157 142 151
-0.0827383 0.0439907 1.5513 -0.493764 -0.0488319 -0.868224 142 127 135
-0.074227 0.0432702 1.5475 -0.457711 -0.161975 -0.874222 137 123 129
-0.0738875 0.043315 1.54723 -0.460056 -0.147166 -0.875609 137 123 129
-0.0658781 0.043284 1.5437 -0.447795 -0.191762 -0.873331 139 125 131
-0.0566742 0.0433291 1.53981 -0.45596 -0.281056 -0.844457 144 130 136
-0.0468194 0.0387982 1.53603 -0.464343 -0.268654 -0.843926 137 124 130
0.00152829 0.0454166 1.53022 -0.311624 -0.822675 -0.475495 120 108 109
0.386732 0.0571083 1.9569 -0.932633 0.145226 -0.330312 102 97 91
0.39677 0.0525198 1.9554 -0.727181 -0.153861 -0.668981 103 96 89
0.406459 0.0501012 1.94932 -0.600559 -0.254763 -0.757909 105 97 91
0.422372 0.0499853 1.94428 -0.590605 0.138524 -0.794983 109 104 100
0.442111 0.0582727 1.94124 -0.908322 -0.0148733 -0.418007 125 118 112
0.564238 0.052951 1.88089 -0.60126 -0.287862 -0.7454 112 107 102
0.584836 0.0472443 1.86615 -0.535396 0.101938 -0.838427 114 115 112
0.594896 0.0472347 1.85991 -0.498609 -0.0400382 -0.865902 113 113 109
0.604328 0.0471567 1.85226 -0.393791 -0.191925 -0.89894 114 114 109
0.62366 0.053653 1.83534 -0.519324 -0.136303 -0.843637 113 115 111
0.632643 0.0480508 1.82771 -0.42025 0.402466 -0.813272 113 113 108
-0.598064 0.0833177 2.37134 -0.715684 -0.0934689 -0.692141 158 158 159
-0.583874 0.0813433 2.36374 -0.0965845 -0.294897 -0.950635 159 159 160
-0.569779 0.0794906 2.35709 -0.324879 0.0773012 -0.942591 160 158 159
-0.26816 0.0524592 1.64949 -0.256462 0.122017 -0.958822 169 158 158
-0.258911 0.0525856 1.64898 -0.412496 0.086354 -0.906857 171 159 160
-0.249393 0.0525939 1.64412 -0.471898 -0.0433166 -0.880589 171 160 160
-0.23694 0.0539849 1.6351 -0.509913 0.0626203 -0.857944 172 160 162
-0.206664 0.0497871 1.61728 -0.577099 0.350567 -0.737604 167 154 157
-0.203181 0.0504581 1.6148 -0.514021 0.23767 -0.824194 165 152 155
-0.193893 0.0543933 1.6101 -0.591143 0.145194 -0.793391 166 154 156
-0.167686 0.0551697 1.59457 -0.398714 -0.312962 -0.862022 155 142 145
-0.153798 0.0495269 1.58622 -0.670006 -0.161718 -0.724526 160 148 154
-0.135651 0.0546608 1.57613 -0.452554 -0.101514 -0.88594 148 135 139
-0.126993 0.0546768 1.57215 -0.18382 -0.0162258 -0.982826 165 151 156
-0.125542 0.0546553 1.57157 -0.26766 -0.0291594 -0.963072 165 151 156
-0.117038 0.0546832 1.56827 -0.429362 -0.108919 -0.896541 158 144 151
-0.0913175 0.0504371 1.55595 -0.462828 -0.156276 -0.872564 156 140 149
-0.0828785 0.0504307 1.55178 -0.459627 -0.0964649 -0.882857 156 141 149
-0.07079 0.0512904 1.54474 -0.451033 -0.0213699 -0.892251 149 135 143
-0.0624037 0.0512801 1.54013 -0.465004 -0.00512377 -0.885294 142 127 135
-0.052876 0.0465145 1.53677 -0.413706 -0.23199 -0.880357 140 126 132
-0.0446011 0.0465372 1.53296 -0.469466 -0.223362 -0.854231 145 132 139
-0.0363125 0.0465526 1.52891 -0.472675 -0.307282 -0.825927 146 133 139
-0.0341353 0.0486759 1.52766 -0.46857 -0.313674 -0.825864 146 133 140
-0.0257237 0.0487042 1.52377 -0.432735 -0.271299 -0.859731 145 131 138
-0.0127447 0.0528299 1.51549 -0.478243 -0.042318 -0.877208 145 132 137
-0.00437446 0.0528113 1.51039 -0.540822 0.187313 -0.820015 142 129 133
0.0197835 0.0465346 1.50201 0.105545 0.33209 -0.937324 123 111 114
0.0281778 0.0485114 1.50631 -0.169004 -0.296739 -0.939885 123 111 112
0.399332 0.0612042 1.95255 -0.710737 0.133889 -0.690598 105 99 93
0.416682 0.0620789 1.94845 -0.382798 0.306454 -0.871523 108 103 99
0.431093 0.0619349 1.94229 0.132367 0.382669 -0.914354 115 109 103
0.447648 0.066836 1.92563 -0.953119 -0.0131677 -0.302309 124 115 107
0.453603 0.0604332 1.9196 -0.657067 0.467765 -0.591151 126 120 115
0.542715 0.0648014 1.89313 0.330852 0.106738 -0.937627 119 118 112
0.558878 0.0635734 1.88634 -0.754362 0.137073 -0.641988 116 114 109
0.566833 0.0620909 1.8734 -0.635474 -0.424128 -0.645205 114 110 105
0.582704 0.0620356 1.87541 0.218282 -0.0900198 -0.971725 115 115 111
0.590406 0.0574767 1.86503 -0.800801 -0.241163 -0.548231 116 116 112
0.58687 0.0595341 1.86515 -0.771238 -0.323199 -0.548392 115 116 112
0.599511 0.0569292 1.85638 -0.815222 -0.360701 -0.453109 116 116 111
0.606754 0.0566313 1.84208 -0.83177 0.0359799 -0.553953 114 115 111
0.613998 0.0570212 1.84003 -0.477248 -0.135968 -0.868186 113 115 112
0.642111 0.0610615 1.82765 -0.531994 -0.0431571 -0.845648 111 109 103
-0.604712 0.0936391 2.37005 -0.350263 -0.0123531 -0.93657 160 160 161
-0.59057 0.0930777 2.36498 -0.20993 0.0907401 -0.973497 159 159 161
-0.576572 0.0927564 2.36123 -0.312025 0.0953285 -0.945279 158 158 158
-0.562206 0.092182 2.35519 -0.366535 -0.0247788 -0.930074 156 153 153
-0.496956 0.0868215 2.33328 -0.545893 -0.521369 -0.655878 160 157 154
-0.471819 0.0888673 2.33307 -0.509133 -0.627617 -0.588966 160 155 154
-0.45562 0.0899554 2.32456 0.100584 -0.884173 -0.456203 161 154 153
-0.442923 0.0903754 2.32036 -0.233938 0.563723 -0.792142 164 159 158
-0.417144 0.0907075 2.31761 0.778586 -0.52174 -0.348699 164 159 157
-0.224638 0.0587768 1.63378 -0.59118 0.36407 -0.719694 172 160 162
-0.230353 0.0598206 1.62971 -0.438684 -0.301391 -0.846593 172 161 162
-0.22103 0.0598592 1.62594 -0.441267 -0.23623 -0.865725 173 160 162
-0.211713 0.0598202 1.62079 -0.406792 -0.0090438 -0.913476 172 160 161
-0.20092 0.0622149 1.61795 -0.558147 0.262181 -0.787231 172 160 161
-0.184423 0.0580954 1.60558 -0.520066 0.164018 -0.83823 169 156 157
-0.175204 0.0640733 1.60097 -0.592416 0.0617317 -0.803264 170 158 156
-0.158007 0.0585863 1.58795 -0.545636 0.148332 -0.82479 161 148 152
-0.148841 0.0585785 1.58254 -0.493577 0.0531965 -0.868074 152 139 143
-0.140421 0.0629878 1.57778 -0.520443 0.0595177 -0.85182 159 146 148
-0.131194 0.0629924 1.57529 -0.270755 -0.0416255 -0.961748 163 149 152
-0.121746 0.0628807 1.57 -0.260004 -0.0499347 -0.964315 168 154 157
-0.110585 0.0608623 1.56486 -0.520967 -0.082321 -0.849598 166 152 156
-0.102006 0.056459 1.55966 -0.487434 -0.209465 -0.847663 148 133 141
-0.0954684 0.0623523 1.55655 -0.511206 -0.0670532 -0.856839 158 143 150
-0.0876551 0.0583901 1.55256 -0.420684 -0.163823 -0.892293 142 127 134
-0.0578056 0.0545146 1.53787 -0.452562 -0.0327027 -0.891133 146 131 140
-0.049617 0.0545138 1.53311 -0.499337 -0.0721029 -0.863403 139 125 133
-0.0413188 0.0545128 1.52852 -0.476012 -0.070312 -0.876624 134 121 128
-0.0312307 0.0566607 1.52348 -0.465102 -0.0487355 -0.883914 133 119 128
-0.0171572 0.061059 1.51577 -0.446884 -0.0388785 -0.893747 133 119 127
0.00528254 0.055648 1.50632 -0.336928 0.0462763 -0.940392 140 128 130
0.0147729 0.0556405 1.50272 -0.218115 0.088468 -0.971905 134 121 125
0.0387396 0.0602801 1.51168 -0.0214302 -0.885106 -0.464895 135 122 123
0.408233 0.0748894 1.94734 -0.26767 0.455821 -0.84887 106 100 94
0.423404 0.0748536 1.94479 -0.101548 0.246146 -0.963898 111 105 101
0.441987 0.0753739 1.94192 -0.939656 0.0569181 -0.337353 125 117 111
0.550926 0.071284 1.88905 -0.646 -0.0384655 -0.762368 117 118 110
0.586266 0.0701369 1.86402 -0.498369 -0.282867 -0.819521 115 116 111
0.603228 0.0746694 1.85396 -0.778894 0.234207 -0.581783 112 112 106
0.619167 0.0679481 1.84346 -0.0363516 0.430981 -0.901628 114 116 112
0.634151 0.0663565 1.83636 -0.747216 0.200264 -0.63369 114 113 106
0.630385 0.072971 1.83581 -0.711726 -0.118157 -0.692448 116 116 111
0.641539 0.0728563 1.82874 -0.324442 0.0289434 -0.945463 115 114 106
-0.612561 0.106189 2.37302 -0.32958 -0.0401336 -0.943274 159 160 163
-0.597928 0.106776 2.36858 -0.258921 -0.0628294 -0.963853 156 156 159
-0.583836 0.106818 2.36489 -0.36866 -0.0895635 -0.925239 154 153 153
-0.553036 0.100649 2.35122 -0.451169 -0.108691 -0.885795 157 155 154
-0.497459 0.0981097 2.34082 -0.481684 0.390184 -0.784689 159 155 152
-0.477381 0.104703 2.33041 -0.552677 -0.179312 -0.813877 161 155 154
-0.462583 0.101102 2.32366 -0.257114 -0.0853281 -0.962607 162 156 156
-0.449326 0.100062 2.3178 -0.0272774 0.00892359 -0.999588 163 158 157
-0.436802 0.0985099 2.31402 -0.498591 0.17254 -0.849492 164 159 158
-0.423164 0.0985701 2.30766 0.2944 -0.109153 -0.949428 164 159 157
-0.236206 0.0687498 1.62756 -0.58296 -0.407085 -0.703164 168 154 154
-0.224592 0.0681467 1.61079 0.0491548 -0.471074 -0.880723 169 154 151
-0.214822 0.0680363 1.61134 -0.420374 0.422433 -0.803017 172 159 158
-0.205175 0.071938 1.61503 -0.702573 0.291933 -0.648973 172 160 159
-0.197454 0.0733977 1.61283 -0.183271 -0.266775 -0.946173 173 160 160
-0.19109 0.0658059 1.61043 -0.542927 0.135336 -0.828803 172 160 161
-0.182447 0.0705795 1.60581 -0.599457 0.082635 -0.79613 172 160 159
-0.163668 0.0698184 1.59156 -0.419807 0.0561962 -0.905872 172 158 159
-0.164654 0.0664634 1.59491 -0.501505 0.197985 -0.842196 169 156 157
-0.161997 0.070681 1.59059 -0.5597 -0.109139 -0.821477 172 158 159
-0.153095 0.0676416 1.58473 -0.532968 -0.152221 -0.83233 169 156 157
-0.15475 0.0697722 1.58596 -0.457214 -0.0611332 -0.887253 171 158 159
-0.13599 0.0713406 1.57724 -0.568299 0.167684 -0.805555 165 152 153
-0.126656 0.071247 1.57329 -0.402928 0.353182 -0.844341 169 156 157
-0.111303 0.0715125 1.57113 -0.525456 0.0272951 -0.850383 168 155 156
-0.103453 0.0663453 1.56218 -0.561776 -0.0151279 -0.827151 167 154 156
-0.0888999 0.0681701 1.55312 -0.513048 -0.0637856 -0.855987 162 148 153
-0.0752138 0.0706902 1.5458 -0.512358 -0.0655098 -0.85627 155 143 149
-0.0704913 0.0626832 1.54349 -0.438695 -0.141972 -0.887351 142 128 136
-0.0622293 0.062688 1.53944 -0.446084 -0.140653 -0.88387 146 132 141
-0.0540081 0.0626854 1.53501 -0.465236 -0.131334 -0.87539 151 138 147
-0.0457431 0.062666 1.53071 -0.465245 -0.117763 -0.877314 152 138 147
-0.0374659 0.0626673 1.52624 -0.482599 -0.024266 -0.875505 148 134 143
-0.0300734 0.069189 1.5221 -0.469859 -0.0814682 -0.878974 150 135 145
-0.0216585 0.0691846 1.51775 -0.444418 -0.0808335 -0.892165 150 136 144
-0.000590649 0.0636348 1.50797 -0.458106 0.00787423 -0.888863 137 123 131
0.00641555 0.063782 1.5058 -0.346603 -0.381784 -0.856801 144 130 138
0.0145437 0.0638813 1.50366 -0.317954 -0.505853 -0.801884 146 132 139
0.0284572 0.0641762 1.50322 -0.0404886 -0.770268 -0.636434 142 128 133
0.0530037 0.0643752 1.52058 0.0204824 -0.873555 -0.486294 134 122 121
0.0538361 0.0628717 1.54692 0.260492 -0.840053 -0.475873 130 118 118
0.0592147 0.0674063 1.49395 -0.220435 -0.863567 -0.453498 139 127 126
0.398203 0.0877941 1.93988 0.30096 -0.7881 -0.536956 107 99 94
0.415403 0.0876831 1.94576 0.0576629 -0.545878 -0.835878 107 97 89
0.434744 0.0850147 1.94812 -0.939284 0.126701 -0.318891 117 111 106
0.449502 0.0847702 1.92802 -0.956628 -0.00892435 -0.291177 129 122 117
0.551698 0.078978 1.8636 0.49012 -0.465705 -0.736818 116 117 111
0.557789 0.0763133 1.87456 -0.331401 -0.579279 -0.744721 117 116 111
0.567241 0.0790064 1.86879 0.122523 -0.076583 -0.989507 117 115 110
0.584865 0.0799101 1.87519 0.344614 0.0445924 -0.937685 115 114 109
0.598779 0.0839107 1.86595 -0.861343 0.244099 -0.445537 116 114 110
0.608269 0.0830351 1.84835 -0.799909 -0.267161 -0.537374 111 108 100
0.616766 0.0794744 1.84076 -0.581629 -0.153518 -0.798836 115 115 110
0.626259 0.0747707 1.83884 -0.723872 -0.0932618 -0.683602 116 117 112
0.63219 0.0835251 1.82135 -0.438096 -0.626555 -0.644594 115 117 111
-0.62086 0.120861 2.37649 -0.619333 -0.0204193 -0.784863 154 154 156
-0.591062 0.119137 2.36535 -0.126995 -0.138211 -0.982227 154 154 155
-0.574659 0.111975 2.36032 -0.484757 -0.18178 -0.855551 158 156 156
-0.559991 0.113594 2.35333 -0.611897 -0.0591909 -0.788719 160 157 159
-0.498111 0.11667 2.33723 -0.193827 -0.347626 -0.917381 160 156 155
-0.484147 0.115754 2.33227 0.0748831 -0.421411 -0.903773 161 155 155
-0.44303 0.110623 2.31688 -0.389245 0.0567874 -0.919382 162 157 156
-0.429382 0.109779 2.30923 -0.367271 0.236925 -0.899432 162 156 154
-0.414899 0.109451 2.30259 -0.255875 0.196552 -0.946517 162 158 155
-0.403109 0.111116 2.29559 -0.39035 -0.745421 -0.540347 165 161 158
-0.402755 0.109847 2.29681 -0.388449 -0.746385 -0.540386 165 161 158
-0.389397 0.110504 2.29279 -0.340305 -0.421651 -0.840478 167 161 159
-0.387095 0.111659 2.28962 -0.221663 -0.630426 -0.743928 168 162 159
-0.18959 0.0774706 1.6113 -0.236836 -0.668944 -0.704573 173 160 159
-0.170519 0.0753242 1.59902 -0.504093 -0.118854 -0.855432 172 158 158
-0.17413 0.0755747 1.60209 -0.622208 -0.175304 -0.762972 172 159 158
-0.156379 0.0780452 1.58848 -0.462473 -0.1884 -0.866386 172 159 160
-0.147758 0.0751476 1.58582 -0.546336 0.222001 -0.807609 172 158 159
-0.142265 0.0794615 1.58235 -0.602893 0.022332 -0.797509 171 158 159
-0.118372 0.0769028 1.57138 -0.402037 0.0932994 -0.910858 170 156 159
-0.0966682 0.0720955 1.55634 -0.505265 -0.208797 -0.837324 165 152 154
-0.0907972 0.077555 1.54918 -0.668762 -0.440931 -0.598613 163 149 154
-0.0829586 0.0745764 1.5497 -0.513134 -0.113825 -0.850727 163 149 153
-0.0666786 0.0778707 1.53628 -0.480872 -0.476617 -0.735934 160 147 152
-0.0586049 0.0706646 1.53601 -0.4514 -0.131048 -0.882646 141 127 136
-0.0503885 0.0706659 1.53167 -0.431055 -0.153988 -0.889089 140 126 136
-0.0421901 0.070656 1.52749 -0.427221 -0.120622 -0.896065 142 129 138
-0.0261702 0.0772919 1.51874 -0.449286 -0.0852276 -0.889314 139 125 133
-0.0177583 0.077284 1.51434 -0.433877 -0.124327 -0.892353 140 127 134
-0.00732672 0.0718542 1.50998 -0.409084 -0.0487689 -0.911193 145 131 139
0.00160851 0.071682 1.50555 -0.434522 -0.0816963 -0.896948 136 121 131
0.0100258 0.0716813 1.50116 -0.481902 -0.110665 -0.869209 131 116 126
0.0236041 0.0712941 1.49436 -0.336581 -0.201892 -0.919757 141 127 134
0.0323012 0.0718193 1.48994 -0.381221 -0.187741 -0.90522 145 133 137
0.0402885 0.0718589 1.4871 -0.397326 -0.311365 -0.86324 146 134 137
0.0487536 0.0723301 1.48521 -0.667582 -0.552206 -0.499402 144 133 135
0.411389 0.0960022 1.93782 0.267628 -0.660505 -0.701504 112 103 96
0.426117 0.0949378 1.94481 0.279683 -0.195236 -0.940032 113 107 99
0.443209 0.0948187 1.94212 -0.953546 -0.0231686 -0.300355 126 121 117
0.449377 0.094957 1.92427 -0.744402 0.458441 -0.485486 128 122 116
0.455434 0.0930553 1.91558 -0.836267 0.305277 -0.455481 128 123 117
0.55154 0.0952542 1.87048 0.219303 -0.809151 -0.545144 117 117 111
0.562702 0.092413 1.86842 0.267103 -0.324888 -0.907251 116 113 109
0.574998 0.0926637 1.86982 -0.307791 -0.316593 -0.897237 112 109 104
0.589608 0.0925507 1.86147 -0.343249 0.36148 -0.866898 115 115 110
0.601897 0.0875726 1.86278 -0.775793 0.33018 -0.537705 114 113 108
0.614147 0.0904975 1.8416 -0.676181 -0.0190925 -0.736488 116 116 110
0.627501 0.0842972 1.83293 -0.812959 -0.333915 -0.477073 116 118 113
-0.628499 0.133318 2.37813 -0.367608 -0.0419515 -0.929034 157 154 157
-0.606127 0.120676 2.3703 -0.360695 -0.160617 -0.91875 158 158 159
-0.566997 0.124392 2.35597 -0.367038 0.068015 -0.927716 159 157 158
-0.552944 0.123618 2.35005 -0.0934395 0.109282 -0.989609 157 154 154
-0.539271 0.122611 2.34655 -0.337925 -0.0871407 -0.93713 160 157 157
-0.509763 0.129637 2.33443 -0.363805 -0.0866175 -0.927439 161 156 157
-0.474887 0.11951 2.3235 -0.568461 0.0819666 -0.818617 161 157 157
-0.461076 0.120637 2.32019 -0.291724 0.109572 -0.950206 162 157 156
-0.435952 0.122602 2.31271 -0.384941 0.0331171 -0.922347 162 157 155
-0.42234 0.122485 2.30677 -0.44416 0.00437084 -0.895937 160 156 153
-0.409341 0.121766 2.29593 -0.394467 0.271508 -0.877883 164 159 156
-0.396505 0.120352 2.2896 -0.378904 -0.0352985 -0.924763 165 161 157
-0.394399 0.121606 2.28886 -0.227538 0.350306 -0.908577 165 160 157
-0.16124 0.0864451 1.58565 0.0650497 -0.613002 -0.787399 170 157 157
-0.149045 0.0849261 1.57991 -0.561887 0.112579 -0.819517 171 158 158
-0.13125 0.0828926 1.58036 -0.633635 0.352663 -0.688575 170 157 158
-0.133106 0.0832586 1.58366 -0.623799 0.357488 -0.695038 170 158 158
-0.118071 0.0827463 1.57138 -0.623367 0.266088 -0.735262 169 155 158
-0.110486 0.0817293 1.56718 -0.594119 0.182087 -0.783497 168 155 156
-0.100404 0.0812875 1.55486 -0.689876 -0.504207 -0.519468 166 153 154
-0.0866567 0.0838633 1.54731 -0.732047 -0.442356 -0.5181 165 150 153
-0.0761727 0.0800443 1.54017 -0.537727 -0.492706 -0.684171 162 149 152
-0.0628479 0.0815705 1.53526 -0.533861 -0.306481 -0.788075 162 149 153
-0.0550622 0.0785256 1.53392 -0.502332 -0.105862 -0.85817 154 141 148
-0.0425085 0.0796097 1.5261 -0.465558 -0.251057 -0.848662 143 130 136
-0.0341861 0.0796733 1.52236 -0.500645 -0.156901 -0.851315 138 124 133
-0.0213667 0.0839683 1.51541 -0.48386 -0.103871 -0.86896 137 124 132
-0.0120465 0.0800876 1.51158 -0.444267 -0.0786541 -0.892435 138 124 132
-0.00326454 0.0800634 1.50724 -0.428309 -0.0661569 -0.901207 145 131 141
0.00554036 0.0798724 1.5028 -0.459627 -0.0731003 -0.885099 149 134 144
0.0190731 0.0794342 1.49532 -0.431531 -0.0734009 -0.899107 135 122 130
0.0275737 0.0798181 1.49039 -0.389707 -0.0608966 -0.918923 129 116 124
0.0357262 0.0798224 1.48632 -0.456087 -0.0915148 -0.885217 129 116 122
0.0440524 0.0798317 1.48221 -0.488169 -0.167492 -0.856526 136 123 128
0.402481 0.100242 1.94996 -0.879778 -0.358897 -0.311742 108 102 95
0.41893 0.108077 1.93792 0.153175 -0.177163 -0.972189 114 107 100
0.434635 0.104285 1.94585 -0.0202718 -0.176105 -0.984163 119 113 107
0.46211 0.103106 1.90325 -0.889752 0.200709 -0.409948 129 123 117
0.568601 0.102016 1.86872 -0.244433 -0.161541 -0.956116 112 108 104
0.599883 0.098928 1.85568 -0.587611 -0.301694 -0.750795 115 117 112
0.607033 0.0964237 1.85093 -0.722199 -0.209953 -0.659051 115 116 110
0.612902 0.102397 1.83887 -0.920577 0.194736 -0.338551 115 117 111
0.626269 0.10005 1.82662 -0.724006 -0.0353463 -0.688888 114 116 110
0.630832 0.0967429 1.82894 -0.843198 0.0897147 -0.530065 113 116 110
-0.613137 0.134033 2.37147 -0.469137 0.0731419 -0.880091 155 153 156
-0.597855 0.135775 2.36703 -0.529131 -0.0412147 -0.847539 156 156 157
-0.594683 0.143318 2.36759 -0.705781 0.111745 -0.699562 156 156 156
-0.580608 0.13731 2.35994 -0.561032 -0.0109977 -0.827721 156 156 156
-0.559949 0.136567 2.35282 -0.288444 0.00330636 -0.957491 157 154 154
-0.545446 0.134461 2.34718 -0.345614 0.0364796 -0.937668 154 150 151
-0.515445 0.14195 2.33708 -0.272908 0.0597788 -0.960181 159 155 156
-0.499782 0.140494 2.3312 -0.187755 0.389576 -0.901653 159 155 156
-0.492214 0.131169 2.33408 -0.25199 0.0547836 -0.966178 158 156 157
-0.482309 0.140764 2.32814 -0.653595 -0.0239342 -0.756466 153 149 148
-0.468471 0.134201 2.3233 -0.383974 -0.106749 -0.917153 161 157 155
-0.454577 0.136256 2.32192 -0.180105 0.0757269 -0.980728 160 153 151
-0.442673 0.134252 2.31354 -0.541597 -0.194803 -0.817756 163 157 154
-0.429328 0.130984 2.30092 -0.636984 -0.483868 -0.600102 163 159 156
-0.41565 0.133724 2.29917 -0.290919 0.138902 -0.946611 163 158 156
-0.401944 0.134923 2.29753 -0.488523 0.279447 -0.826592 162 157 154
-0.38677 0.134712 2.2881 -0.469068 0.158177 -0.868882 160 154 151
-0.161129 0.0943887 1.57831 -0.336933 -0.688557 -0.642157 164 152 150
-0.14649 0.0960841 1.57684 -0.0443006 -0.725183 -0.687129 165 150 148
-0.13976 0.0889226 1.57306 -0.500117 0.0161439 -0.865807 171 157 156
-0.132589 0.0944775 1.57844 0.368238 -0.689455 -0.623741 170 157 156
-0.111832 0.0951663 1.56168 -0.780158 0.251858 -0.572644 168 154 156
-0.0746266 0.0882206 1.53758 -0.680369 -0.53247 -0.50356 164 151 152
-0.0653248 0.0875144 1.53242 -0.623338 -0.478364 -0.618561 163 151 152
-0.0568793 0.0876113 1.52994 -0.414063 -0.345813 -0.842001 163 150 153
-0.0483702 0.0876259 1.52601 -0.396384 -0.414393 -0.819243 162 149 152
-0.0397225 0.0877048 1.52318 -0.485389 -0.312281 -0.816626 159 146 152
-0.0313901 0.087781 1.51954 -0.511855 -0.24234 -0.824182 151 138 144
-0.0237605 0.0932299 1.5162 -0.531975 -0.137523 -0.835518 154 141 147
-0.0158951 0.0903224 1.51129 -0.529286 -0.197365 -0.825169 140 126 135
-0.00785049 0.0883162 1.508 -0.402991 -0.0596508 -0.913258 135 122 131
0.000923536 0.088297 1.5038 -0.379475 -0.0295861 -0.924729 132 118 128
0.0146324 0.087787 1.49702 -0.484049 -0.0508764 -0.873561 141 127 136
0.0227666 0.0877319 1.49236 -0.407352 -0.12995 -0.903979 145 131 139
0.0311486 0.0876981 1.488 -0.449025 -0.143371 -0.881942 141 128 137
0.0392961 0.087683 1.48359 -0.504102 -0.208011 -0.83822 134 122 129
0.399583 0.114902 1.93557 -0.860714 0.234904 -0.451654 111 105 98
0.412739 0.115183 1.93963 -0.0564587 -0.248363 -0.96702 113 106 99
0.427761 0.115054 1.94199 0.27963 -0.13383 -0.950735 115 109 103
0.442125 0.115281 1.93955 -0.764101 -0.31189 -0.564689 127 120 114
0.456851 0.11326 1.91845 -0.951747 0.035012 -0.30488 125 117 110
0.558014 0.105314 1.86856 -0.0835741 -0.354111 -0.931462 115 115 110
0.55858 0.105993 1.86955 -0.181083 -0.290184 -0.939682 115 115 110
0.569732 0.105597 1.86848 -0.440261 -0.186623 -0.878261 113 109 105
0.582499 0.105603 1.86495 -0.274642 0.0531007 -0.960079 115 113 109
0.594344 0.10883 1.85438 -0.00408546 -0.881109 -0.472895 115 115 113
0.603192 0.107138 1.84737 -0.763502 0.190964 -0.616925 116 117 112
0.607447 0.111247 1.84543 -0.851408 0.200754 -0.484564 115 116 110
0.623239 0.110294 1.83621 -0.470389 -0.180218 -0.863861 114 116 109
0.632174 0.110093 1.82736 -0.798629 0.111969 -0.591316 113 116 109
-0.636083 0.146838 2.37994 -0.323943 -0.361697 -0.874206 157 152 153
-0.602665 0.156193 2.37209 -0.623698 0.299516 -0.722005 154 152 151
-0.579904 0.156482 2.35989 -0.568468 0.0208209 -0.822442 154 150 149
-0.566728 0.148552 2.35507 -0.170735 0.154246 -0.973169 158 157 157
-0.564237 0.156363 2.3531 -0.254135 -0.0470709 -0.966023 156 155 154
-0.552405 0.147626 2.35059 -0.291008 0.0161065 -0.956585 157 155 156
-0.538352 0.154142 2.34665 -0.364423 -0.0397799 -0.930384 161 158 158
-0.522582 0.153622 2.33894 0.0168794 0.135499 -0.990634 158 153 154
-0.522113 0.153924 2.33892 0.00425647 0.0722408 -0.997378 157 153 153
-0.50694 0.154306 2.33762 -0.166952 0.278704 -0.945754 154 149 148
-0.469263 0.153438 2.32078 -0.127438 -0.047888 -0.99069 160 155 154
-0.461101 0.146493 2.32107 -0.0790558 0.10551 -0.991271 160 155 155
-0.447949 0.145284 2.31609 -0.366348 -0.189275 -0.911024 161 157 155
-0.434235 0.145616 2.31129 -0.264882 0.081772 -0.960808 164 157 155
-0.132589 0.10252 1.56954 -0.0708214 -0.255625 -0.964179 162 149 147
-0.123208 0.102195 1.56387 -0.358535 0.318128 -0.877638 169 154 154
-0.103909 0.0996848 1.55882 -0.297873 -0.411963 -0.861138 168 154 154
-0.0945694 0.0988477 1.55576 -0.758585 -0.388754 -0.522895 168 153 153
-0.0856614 0.0985111 1.54885 -0.753866 -0.405123 -0.517263 166 152 154
-0.0738267 0.0986198 1.54497 -0.732632 -0.453822 -0.507244 165 152 154
-0.0625961 0.0956389 1.53457 -0.745404 -0.43593 -0.504319 165 151 154
-0.0541889 0.0958861 1.53434 -0.558836 -0.277141 -0.781598 164 151 153
-0.0456765 0.0955257 1.52556 -0.459875 -0.422825 -0.780854 163 150 153
-0.035462 0.0963484 1.51735 -0.422285 -0.478778 -0.769706 161 149 151
-0.0111958 0.0973562 1.50951 -0.572947 -0.0821141 -0.815468 150 137 144
0.00215536 0.0981035 1.50155 -0.559665 -0.180676 -0.808784 137 124 132
0.0100318 0.0956542 1.49748 -0.475749 -0.142165 -0.868016 133 120 128
0.0181298 0.0956772 1.49341 -0.414583 -0.130428 -0.900616 128 115 123
0.0265313 0.0956144 1.48916 -0.423131 -0.0854672 -0.902028 128 115 123
0.0325851 0.0981076 1.48646 -0.463352 -0.0241328 -0.885846 124 112 119
0.407326 0.129124 1.93912 -0.0383441 -0.894894 -0.444629 121 112 104
0.420114 0.128776 1.93592 0.143341 -0.188056 -0.971642 118 109 100
0.437426 0.12854 1.94239 0.186198 -0.0774035 -0.979459 127 119 113
0.446623 0.124642 1.93282 -0.752725 -0.0614065 -0.655466 128 121 114
0.454667 0.118921 1.92561 -0.90492 0.0128723 -0.425387 125 119 112
0.464616 0.123656 1.91054 -0.777763 0.0833078 -0.623013 130 124 118
0.467525 0.120275 1.90996 -0.669127 0.228784 -0.707056 130 124 118
0.564468 0.115392 1.86651 -0.153365 -0.465188 -0.871825 115 115 110
0.564273 0.115947 1.86686 -0.185395 -0.461332 -0.867642 115 115 110
0.574629 0.116717 1.86192 -0.936929 -0.272215 -0.219233 115 114 109
0.583218 0.114991 1.86635 0.393287 -0.435793 -0.809574 115 114 109
0.583218 0.114991 1.86635 0.393287 -0.435793 -0.809574 115 114 109
0.583218 0.114991 1.86635 0.393287 -0.435793 -0.809574 115 114 109
0.603428 0.120282 1.85854 -0.802112 0.457822 -0.383426 116 117 110
0.615439 0.118728 1.83601 -0.922513 0.143266 -0.358391 111 110 103
0.627025 0.120002 1.83071 -0.441803 -0.239875 -0.864448 114 117 110
-0.646082 0.163451 2.38507 -0.169296 0.296475 -0.939916 157 151 152
-0.630798 0.165036 2.38271 0.103535 0.267346 -0.958022 154 148 149
-0.614603 0.160279 2.37425 -0.514029 0.0487087 -0.856389 153 148 148
-0.541382 0.16652 2.34599 -0.224813 -0.143519 -0.963775 158 153 153
-0.527699 0.165915 2.34153 -0.278694 -0.0976937 -0.955398 159 154 154
-0.513963 0.167501 2.34083 -0.275259 -0.0535712 -0.959876 152 146 146
-0.500289 0.166815 2.33548 -0.255714 -0.0559488 -0.965132 158 155 154
-0.483052 0.161278 2.32843 -0.672875 -0.0434663 -0.738479 160 155 155
-0.462842 0.165007 2.31996 -0.233656 0.222914 -0.946422 160 155 154
-0.441991 0.158084 2.31162 -0.433718 -0.179231 -0.883043 160 153 152
-0.427391 0.156552 2.30833 -0.461553 -0.229724 -0.856852 162 156 154
-0.413268 0.158034 2.30386 -0.24587 -0.700147 -0.67033 160 155 151
-0.401158 0.159164 2.29498 -0.615706 -0.39103 -0.684107 165 159 155
-0.11956 0.106751 1.55107 0.685269 -0.602482 -0.409172 158 142 141
-0.109821 0.107485 1.56196 0.526356 -0.739322 -0.419944 168 153 152
-0.100073 0.106822 1.55675 -0.12858 -0.452842 -0.882271 168 154 153
-0.0994708 0.107622 1.55671 -0.108616 -0.570215 -0.814284 168 154 153
-0.0914093 0.106783 1.55201 -0.414202 -0.308685 -0.856242 168 155 155
-0.0827615 0.106728 1.54648 -0.456769 -0.312041 -0.833062 167 154 155
-0.0694155 0.110595 1.54227 -0.0886837 -0.659568 -0.746395 166 153 155
-0.0606846 0.110325 1.53737 -0.094464 -0.420912 -0.90217 166 152 155
-0.0522663 0.104184 1.53583 -0.758802 -0.419183 -0.498503 165 151 154
-0.0421663 0.104705 1.52622 -0.699826 -0.412078 -0.583469 162 150 152
-0.0331895 0.104453 1.51767 -0.721459 -0.429534 -0.543137 160 149 151
-0.0237779 0.101903 1.50956 -0.478178 -0.589564 -0.650968 160 147 150
-0.0149848 0.103225 1.50573 -0.365334 -0.653422 -0.663001 158 146 150
-0.00507963 0.103275 1.50638 -0.590951 0.00139312 -0.806706 155 143 149
0.00964304 0.104596 1.49755 -0.55305 -0.0887813 -0.828404 142 130 136
0.0200581 0.106247 1.49119 -0.521705 -0.232695 -0.820778 135 123 128
0.0280259 0.106315 1.4877 -0.472842 -0.0895593 -0.876584 133 121 127
0.0366164 0.106084 1.48398 -0.10522 -0.0484467 -0.993268 127 116 122
0.444344 0.13703 1.92743 -0.868329 0.00942144 -0.495899 128 122 116
0.451225 0.131001 1.91539 -0.883843 0.162787 -0.438544 130 124 118
0.464518 0.136711 1.90419 -0.680739 0.356336 -0.640015 131 123 119
0.557636 0.124392 1.86219 0.469005 -0.628019 -0.620989 116 116 112
0.557008 0.124768 1.86153 0.454519 -0.644047 -0.615318 116 116 112
0.612015 0.129607 1.83716 -0.711646 -0.41237 -0.56878 114 113 107
0.620831 0.129563 1.83105 -0.470997 -0.232943 -0.850823 115 116 110
-0.654809 0.179121 2.39429 -0.106271 0.555636 -0.824606 155 147 148
-0.639161 0.17923 2.38772 -0.372001 -0.35445 -0.857893 154 148 149
-0.613131 0.18099 2.37926 -0.14405 -0.387994 -0.910335 156 147 146
-0.622953 0.174781 2.38003 -0.697426 -0.0295931 -0.716046 153 145 145
-0.598085 0.175814 2.36612 -0.594833 -0.335039 -0.7307 155 148 147
-0.586165 0.169757 2.36361 -0.634819 0.0197125 -0.77241 156 151 150
-0.586826 0.170449 2.3641 -0.700813 0.0603669 -0.710787 156 150 149
-0.57192 0.169867 2.35609 -0.41376 0.0851082 -0.906399 157 153 152
-0.557033 0.1695 2.35193 -0.305447 0.0392573 -0.951399 157 154 154
-0.548957 0.180154 2.3478 -0.462535 -0.0355735 -0.885887 156 151 150
-0.534907 0.177373 2.34026 -0.214615 -0.107424 -0.970773 154 149 150
-0.520975 0.179309 2.34113 -0.0530398 -0.0965626 -0.993913 154 149 149
-0.470185 0.174821 2.32049 -0.635189 0.206062 -0.744361 157 152 149
-0.454771 0.176474 2.31801 -0.536728 -0.297762 -0.789469 162 158 156
-0.435059 0.171309 2.30511 -0.242329 -0.834405 -0.49502 160 154 153
-0.421967 0.169113 2.30009 -0.03675 -0.39508 -0.917911 162 156 156
-0.388938 0.166048 2.29314 -0.552484 0.367246 -0.748259 164 158 157
-0.372033 0.16754 2.28436 -0.288742 0.527154 -0.79921 163 157 154
-0.103979 0.114977 1.55144 0.345409 -0.647944 -0.678867 157 142 141
-0.0957416 0.115202 1.55094 -0.378434 -0.210503 -0.901375 163 148 147
-0.087374 0.115255 1.54764 -0.421829 -0.200326 -0.884268 166 152 153
-0.0784412 0.1152 1.54254 -0.439897 -0.0521895 -0.89653 167 153 154
-0.0741094 0.117525 1.54036 -0.459582 0.0219363 -0.887864 165 152 153
-0.0657025 0.11785 1.54352 -0.119086 -0.392332 -0.912082 166 153 155
-0.0570397 0.117741 1.54096 -0.404699 -0.698847 -0.589772 165 152 154
-0.0503075 0.115134 1.53097 -0.558369 -0.684608 -0.468547 164 151 154
-0.040729 0.117388 1.52597 -0.742296 -0.46161 -0.485709 163 151 154
-0.0238851 0.111017 1.50878 -0.599809 -0.640441 -0.47965 160 148 150
-0.0150511 0.111741 1.50482 -0.712033 -0.52195 -0.469656 160 147 150
0.00217901 0.108448 1.50112 -0.588471 -0.0796473 -0.804585 155 143 148
0.00829004 0.113948 1.49218 -0.277035 -0.599467 -0.750927 155 144 146
0.016466 0.108595 1.49286 -0.519198 -0.096052 -0.849239 144 131 137
0.0228257 0.113811 1.48798 -0.461936 -0.319029 -0.827548 148 136 140
0.0315044 0.113585 1.48379 -0.483007 -0.294085 -0.824753 136 126 130
0.0393317 0.113503 1.47812 -0.779443 -0.438728 -0.447198 132 122 127
0.409635 0.139131 1.93148 -0.0561175 -0.76498 -0.641605 126 117 110
0.413112 0.140582 1.9308 0.0205741 -0.67993 -0.732989 127 118 111
0.427245 0.140668 1.93402 0.243387 -0.380012 -0.892386 129 120 114
0.440645 0.140481 1.93526 0.0605362 -0.73962 -0.670297 128 122 117
0.569503 0.136414 1.86375 0.315372 -0.637225 -0.703196 115 114 108
0.589908 0.138371 1.84181 -0.867256 0.390714 -0.308561 116 116 112
0.589908 0.138371 1.84181 -0.867256 0.390714 -0.308561 116 116 112
0.589908 0.138371 1.84181 -0.867256 0.390714 -0.308561 116 116 112
0.603373 0.133589 1.85418 -0.852863 -0.0371219 -0.520814 116 116 111
0.605697 0.141921 1.84178 -0.813275 -0.311455 -0.491508 115 117 112
0.614774 0.139141 1.83187 -0.742581 -0.486217 -0.460616 115 117 112
-0.643286 0.190657 2.3854 -0.351481 -0.148981 -0.924265 156 150 150
-0.628358 0.190779 2.38 -0.484894 -0.211521 -0.848609 156 148 148
-0.606699 0.193068 2.36812 -0.716002 -0.0371375 -0.69711 153 144 142
-0.578747 0.18198 2.35836 -0.361163 0.0132981 -0.932408 153 147 145
-0.563908 0.182223 2.35547 -0.218712 0.183793 -0.958324 155 152 151
-0.534282 0.182093 2.3441 -0.452147 0.125131 -0.883122 155 150 150
-0.51763 0.187038 2.34042 -0.48364 -0.162098 -0.860126 156 151 151
-0.507184 0.183033 2.33534 -0.278587 -0.194907 -0.940426 159 156 155
-0.484437 0.18109 2.32587 -0.186088 -0.749767 -0.634997 160 156 155
-0.463686 0.189944 2.32003 -0.180826 -0.427141 -0.885919 161 157 155
-0.449779 0.187845 2.31294 -0.296833 0.503397 -0.811469 163 159 157
-0.428496 0.183279 2.30312 -0.084525 0.327031 -0.941226 164 159 158
-0.392673 0.181761 2.29432 -0.600489 0.368951 -0.709428 163 157 157
-0.377214 0.183933 2.2939 0.0145166 0.247284 -0.968834 162 155 155
-0.100481 0.122797 1.54921 -0.226351 -0.296278 -0.927893 159 144 143
-0.0789409 0.127034 1.54842 -0.41343 0.0251462 -0.910188 158 141 142
-0.0832833 0.124065 1.54807 -0.44967 0.0460512 -0.892007 157 142 143
-0.0702756 0.124563 1.53862 -0.556887 0.376243 -0.740485 163 149 151
-0.061617 0.124436 1.53592 -0.371223 0.0812782 -0.92498 162 151 151
-0.0474552 0.125766 1.53157 -0.147697 -0.520817 -0.840794 162 150 151
-0.0353542 0.122479 1.52101 -0.733407 -0.481491 -0.479875 163 151 153
-0.0244202 0.118848 1.50861 -0.613354 -0.641307 -0.461 161 148 150
0.000854412 0.117813 1.49619 -0.636611 -0.502024 -0.585405 158 146 148
0.00833054 0.122184 1.49282 -0.675303 -0.483769 -0.556717 157 145 147
0.0173281 0.120897 1.48785 -0.334929 -0.453381 -0.825995 155 144 147
0.0257043 0.120905 1.48455 -0.396896 -0.461964 -0.793135 153 142 145
0.0340678 0.120969 1.48116 -0.784203 -0.428429 -0.44886 149 139 143
0.298187 0.20346 2.5053 -0.233524 0.595708 -0.768504 93 86 85
0.569133 0.149022 1.85103 0.251404 -0.752094 -0.609221 114 114 107
0.582959 0.145753 1.85944 -0.0701214 -0.562843 -0.823584 112 110 104
0.59742 0.148744 1.84767 -0.811548 -0.06343 -0.580833 115 117 112
-0.66513 0.20176 2.38845 -0.283052 0.189186 -0.940261 154 148 149
-0.650396 0.203157 2.38604 -0.333151 0.0428977 -0.941897 153 147 148
-0.635378 0.203574 2.38183 -0.315465 0.145339 -0.937741 154 148 148
-0.620437 0.20227 2.37395 -0.331327 0.0622648 -0.941459 153 146 145
-0.597215 0.196077 2.36274 -0.398215 -0.728674 -0.557189 156 146 145
-0.58368 0.194596 2.35861 -0.213891 -0.00815633 -0.976824 154 144 142
-0.570742 0.195059 2.3588 -0.207472 0.0598909 -0.976406 152 142 141
-0.564101 0.205311 2.35542 -0.58856 -0.0873983 -0.803716 154 144 142
-0.549281 0.198274 2.34661 -0.592317 0.0917741 -0.800461 155 147 144
-0.504579 0.199051 2.33016 -0.574588 0.0804405 -0.81448 156 150 148
-0.492745 0.192343 2.32964 -0.498125 -0.528006 -0.687809 160 156 155
-0.470366 0.201117 2.31722 -0.0272871 -0.34709 -0.937435 162 158 157
-0.383972 0.196311 2.29131 -0.132496 -0.246244 -0.960109 165 158 159
-0.367984 0.195941 2.28721 -0.171915 0.216709 -0.96098 165 158 157
-0.0521112 0.133904 1.52886 -0.558396 0.374648 -0.740157 162 148 148
-0.0552669 0.130164 1.52871 -0.525229 0.38361 -0.75959 162 150 149
-0.0179302 0.127749 1.4921 -0.292716 0.172607 -0.940491 160 148 150
-0.0137276 0.130235 1.49376 -0.278877 0.0432097 -0.959354 160 148 150
-0.0137276 0.130235 1.49376 -0.278877 0.0432097 -0.959354 160 148 150
-0.00698915 0.128706 1.5081 -0.403149 -0.612294 -0.680122 159 147 149
0.00199492 0.128006 1.5027 -0.572768 -0.609729 -0.547876 158 146 148
0.0157627 0.128905 1.49168 -0.723401 -0.482144 -0.494194 156 145 148
0.0282834 0.128416 1.48311 -0.454036 -0.344903 -0.821519 155 145 147
0.305174 0.209229 2.5149 -0.1891 0.591924 -0.783497 92 86 84
