ply
format ascii 1.0
element vertex 716
property float x
property float y
property float z
property float nx
property float ny
property float nz
property uchar diffuse_red
property uchar diffuse_green
property uchar diffuse_blue
end_header
-11.0913 4.53736 22.1943 0.696767 -0.681827 -0.222771 202 175 123
-10.2985 4.54412 22.6314 0.0976415 -0.936895 -0.3357 203 173 124
-9.86518 4.52112 22.6434 -0.284477 -0.788034 -0.545963 201 174 123
-9.80698 4.55102 22.68 -0.467685 -0.61004 -0.639627 195 169 115
-9.35357 4.51409 22.9249 0.254284 -0.899235 -0.355972 197 170 118
-9.2341 4.53638 22.8373 -0.122252 -0.894532 -0.429962 199 172 121
-9.11787 4.52382 22.8737 0.0364587 -0.932814 -0.35851 202 176 127
-8.86893 4.51382 23.2224 0.100024 -0.937578 -0.333081 201 176 129
-8.84725 4.50573 23.1698 0.157774 -0.937181 -0.311125 202 176 129
-8.71318 4.52942 23.0454 0.171107 -0.929211 -0.327552 199 172 124
-8.63351 4.53952 23.4569 0.654949 -0.691355 -0.305073 199 174 125
-8.48045 4.55687 23.5865 0.352974 -0.870592 -0.342753 200 176 126
-7.95045 4.2815 22.1013 0.607 -0.586238 -0.536541 198 173 121
-8.00428 4.49197 23.4624 0.826339 -0.43817 -0.353795 200 173 125
-7.79274 4.43503 23.0298 -0.624009 0.1298 -0.770561 196 170 119
-7.35457 4.30465 22.5031 0.650222 -0.680248 -0.33834 196 169 122
-7.24354 4.30539 22.4416 0.602942 -0.723884 -0.335341 197 172 122
-7.58863 4.47653 23.585 -0.117657 -0.904998 -0.408822 197 171 122
-7.14598 4.28416 22.3841 0.856072 -0.477278 -0.198357 197 172 122
-7.3569 4.44424 23.4029 -0.534137 -0.604076 -0.59143 194 167 119
-7.32138 4.46599 23.4338 -0.536452 -0.602729 -0.590709 192 167 118
-7.30576 4.43962 23.5606 -0.510114 -0.639082 -0.575637 192 166 117
-7.25331 4.43222 23.4786 -0.650428 -0.363273 -0.667065 191 165 116
-7.20908 4.43111 23.4922 -0.64829 -0.374573 -0.662884 190 164 118
-7.08626 4.39085 23.342 -0.685545 -0.169253 -0.708083 193 167 122
-6.85832 4.41507 23.3307 0.393393 -0.857757 -0.330901 195 169 121
-6.78595 4.40449 23.5764 0.537226 -0.769595 -0.345126 194 167 121
-6.72128 4.39156 23.5852 0.512428 -0.777324 -0.364945 193 167 119
-6.76901 4.38754 23.5437 0.275821 -0.902585 -0.330551 194 168 121
-6.36431 4.39213 23.722 0.831691 0.17891 -0.525625 193 166 119
-6.3607 4.42149 23.7043 0.860329 0.0689529 -0.505054 195 168 120
-5.75038 4.36606 23.905 0.089525 -0.936586 -0.33881 187 161 112
-5.66546 4.3801 24.0443 0.154459 -0.927403 -0.340684 189 164 115
-5.63096 4.38678 23.7937 0.08823 -0.93718 -0.337505 192 167 121
-5.58236 4.39152 24.2316 0.24401 -0.905488 -0.347204 194 168 122
-4.9692 4.3351 24.0317 0.627096 -0.727382 -0.278686 196 173 125
-4.91645 4.34797 24.1882 0.429641 -0.854299 -0.292543 190 167 121
-4.81881 4.36886 24.2762 0.595946 -0.751056 -0.284189 187 165 118
-3.80187 4.18334 23.6042 0.803696 -0.498757 -0.324521 194 171 123
-3.74906 4.22134 23.7666 0.751061 -0.577973 -0.319147 197 175 126
-3.64564 4.20173 24.0168 0.595459 -0.739275 -0.314487 196 174 129
-3.56518 4.20492 24.035 0.642981 -0.696512 -0.318507 194 172 126
-3.57109 4.31407 24.7471 0.548851 -0.695196 -0.464181 193 172 123
-3.41639 4.3094 24.7202 0.289611 -0.875917 -0.385868 180 157 109
-3.24977 4.26097 24.2923 -0.139883 -0.913664 -0.381642 185 164 114
-3.32034 4.31392 24.7931 0.290771 -0.874739 -0.387664 186 163 116
-1.46811 4.26438 25.263 -0.60263 -0.613976 -0.509774 183 163 114
-1.23679 4.21373 25.2481 -0.219438 -0.90011 -0.376362 187 167 118
-1.23838 4.25139 25.5276 -0.180355 -0.910165 -0.372924 186 167 117
-1.03555 4.18596 25.1437 0.208744 -0.850525 -0.482735 190 167 121
-0.577393 4.13068 25.2112 -0.27068 -0.848781 -0.454207 191 170 126
0.598278 4.05524 25.3754 -0.766288 0.113817 -0.632336 183 165 122
0.657352 3.95769 24.6767 -0.876257 -0.00366844 -0.48183 173 156 107
-11.2154 4.62758 21.9859 0.823853 -0.523265 -0.217854 202 175 122
-8.9839 4.15712 20.1447 0.117088 -0.863679 -0.490254 203 176 120
-8.89861 4.13195 20.1298 0.658624 -0.739115 -0.141149 203 176 121
-9.74784 4.56256 22.6447 -0.479788 -0.593327 -0.646349 193 166 112
-9.63519 4.56952 22.5669 0.677965 -0.721914 -0.138575 202 175 120
-8.14922 4.06855 20.1564 -0.538727 -0.51297 -0.668307 198 171 120
-9.10431 4.56081 22.7205 0.0691074 -0.937275 -0.341671 201 174 127
-9.03707 4.56436 22.8917 -0.156001 -0.609205 -0.777517 203 176 128
-7.2934 4.35065 22.4646 0.746692 -0.626561 -0.223321 196 169 119
-7.19431 4.35814 22.4712 0.43921 -0.865993 -0.239062 195 169 118
-7.18788 4.38272 22.5407 0.541346 -0.773727 -0.329076 193 167 115
-7.10984 4.37456 22.5534 0.585471 -0.781312 -0.216277 192 167 116
-7.30502 4.49059 23.4986 -0.598767 -0.497298 -0.627832 191 166 118
-7.29473 4.48462 23.4655 -0.623601 -0.44063 -0.64573 191 166 117
-6.3702 3.99867 20.7075 -0.507578 -0.364367 -0.78077 185 159 104
-6.30336 3.98523 20.6262 -0.627725 -0.438786 -0.642984 195 167 121
-6.91024 4.4237 23.0977 0.761017 -0.52922 -0.375205 193 167 120
-6.76652 4.42641 23.4225 0.274982 -0.903543 -0.328627 191 166 118
-6.43637 4.45987 23.4695 0.829301 0.188335 -0.526108 195 170 122
-6.4126 4.42711 23.6166 0.869761 0.0156957 -0.493223 193 167 120
-5.72812 4.38955 23.6805 0.0899143 -0.937353 -0.336577 187 161 114
-5.59698 4.39769 23.5068 -0.0702663 -0.924221 -0.375337 194 169 122
-5.49582 4.39099 23.5975 0.0919152 -0.93749 -0.335654 196 171 123
-5.57956 4.43263 24.1068 0.331757 -0.875364 -0.351674 195 170 124
-5.01381 4.36925 24.002 0.408264 -0.865843 -0.2892 197 174 126
-4.8929 4.36921 23.9528 0.407558 -0.8657 -0.290621 189 164 117
-3.70292 4.26633 23.9843 0.729265 -0.605309 -0.31902 196 173 126
-3.62671 4.2761 23.9699 0.772329 -0.545007 -0.326305 194 172 126
-3.63568 4.29605 23.9596 0.201664 -0.923336 -0.326775 193 171 124
-3.54755 4.2764 23.9646 0.665417 -0.675602 -0.317463 189 167 123
-3.4884 4.2672 24.0414 0.700356 -0.636562 -0.32294 187 165 120
-3.46701 4.27822 24.1193 0.474079 -0.822046 -0.315419 185 163 118
-3.35302 4.31252 24.2875 -0.117364 -0.919895 -0.37419 189 166 121
-3.40867 4.34333 24.5386 0.28245 -0.879613 -0.382758 185 161 117
-3.25432 4.31919 24.2599 -0.346504 -0.792089 -0.502524 188 167 118
-3.15478 4.27427 24.2586 -0.137336 -0.91318 -0.383721 183 164 113
-1.60885 4.26372 25.0108 0.163725 -0.9073 -0.3873 183 163 118
-1.39352 4.25984 25.1759 -0.716061 -0.522041 -0.463389 182 161 112
-1.31705 4.24018 25.0879 -0.535334 -0.733773 -0.418323 183 163 115
-1.23671 4.26207 25.1244 -0.176955 -0.911911 -0.370278 182 161 114
0.652303 4.13029 25.4731 -0.826953 -0.00562455 -0.562243 178 160 113
0.639376 4.11734 25.4321 0.548422 -0.72059 -0.424244 174 158 112
0.689802 3.98342 24.439 -0.855522 -0.0114723 -0.51764 161 146 94
-9.13086 4.16905 20.0592 0.6321 -0.728132 -0.265091 202 173 115
-8.86722 4.16136 19.9906 0.154132 -0.788556 -0.595334 201 173 115
-8.81433 4.15272 20.0563 0.0819796 -0.937216 -0.338976 201 172 116
-8.83563 4.18394 20.2899 0.172235 -0.939162 -0.29717 201 174 119
-8.58417 4.13907 19.886 0.313108 -0.919156 -0.238989 194 163 105
-8.74932 4.18654 20.356 0.159112 -0.939613 -0.303003 200 171 115
-8.61552 4.15557 20.1683 0.174783 -0.939062 -0.295995 200 171 114
-8.21669 4.09865 19.9797 -0.153527 -0.883585 -0.442388 199 170 116
-8.14511 4.08726 19.8873 -0.236274 -0.650148 -0.722137 198 169 116
-8.18566 4.10005 20.0707 -0.370745 -0.742935 -0.557311 200 171 119
-7.23009 4.16658 20.987 -0.369831 -0.769296 -0.520969 189 162 101
-7.16839 4.16669 20.9374 -0.314583 -0.796773 -0.515936 188 160 99
-7.09819 4.16383 20.8645 -0.234857 -0.734044 -0.637198 186 159 97
-7.19224 4.17593 21.2024 0.228927 -0.930365 -0.28638 192 164 108
-7.2158 4.41062 22.4483 0.433626 -0.84245 -0.31976 192 165 111
-6.9194 4.38572 22.3938 0.317263 0.663287 -0.677787 189 162 110
-6.39225 4.03981 20.6489 -0.197339 -0.165511 -0.966262 182 154 100
-5.69702 4.40339 23.4122 0.068056 -0.938173 -0.339412 193 168 120
-5.69583 4.42273 23.4262 0.102507 -0.937451 -0.332682 196 170 122
-5.6553 4.38269 23.1478 0.471019 -0.84155 -0.264452 194 168 118
-5.57811 4.37042 22.9835 0.566191 -0.783484 -0.256086 196 171 121
-5.53196 4.38699 23.1103 0.415538 -0.867909 -0.272145 195 170 121
-5.00172 4.44191 23.8996 0.369951 -0.882679 -0.289853 194 170 120
-4.87279 4.38501 23.5346 0.568418 -0.774945 -0.276336 189 165 114
-4.88938 4.40551 23.8123 0.437442 -0.848363 -0.298202 189 165 116
-4.79203 4.4302 23.9003 0.714963 -0.6404 -0.280562 190 167 117
-3.73861 4.28919 23.6672 0.750245 -0.580236 -0.316954 192 169 120
-3.65945 4.24272 23.2532 0.113463 -0.935313 -0.335135 191 169 118
-3.70441 4.30016 23.7269 0.573591 -0.759359 -0.307192 192 169 121
-3.61535 4.33836 23.8323 0.23412 -0.91796 -0.320215 187 164 116
-3.64273 4.31459 23.808 0.686518 -0.591291 -0.423164 190 167 119
-3.47315 4.33593 23.945 0.681972 -0.658081 -0.319131 181 159 112
-3.37075 4.32458 24.0661 0.475082 -0.821518 -0.315286 187 165 119
-3.3711 4.34742 24.0738 0.229718 -0.917682 -0.324175 190 168 121
-3.34574 4.34765 24.132 -0.116797 -0.913123 -0.390595 188 166 119
-3.07679 4.23082 23.5319 0.0716601 -0.933258 -0.351987 193 170 126
-3.14511 4.31537 24.036 -0.0608256 -0.93014 -0.362133 194 172 127
-2.32564 4.22677 23.9391 0.191161 -0.92161 -0.337776 193 171 124
-2.22236 4.23534 23.9697 0.381088 -0.861135 -0.336479 191 169 123
-2.15432 4.2497 24.1147 0.104266 -0.891931 -0.439987 190 168 121
-2.1595 4.22348 23.9242 0.138401 -0.928469 -0.34466 188 168 120
-1.64497 4.14082 23.8184 0.650413 -0.537889 -0.53632 188 166 124
-1.57995 4.14725 23.9415 0.549192 -0.671958 -0.496851 187 166 125
-1.49538 4.15488 24.1173 0.136523 -0.871683 -0.470669 185 165 121
-1.42706 4.19911 24.2718 -0.247163 -0.791062 -0.559582 178 160 115
-1.23385 4.27152 25.0125 0.0897095 -0.922963 -0.374288 187 167 122
-1.20176 4.27379 24.7482 0.00719073 -0.934559 -0.355734 189 168 125
-1.13067 4.02705 23.4198 0.374236 -0.8556 -0.357627 190 170 124
-1.13344 4.25881 25.0093 0.0656318 -0.926625 -0.370213 192 170 124
-1.02548 4.01571 23.2921 0.718749 -0.56415 -0.406368 191 171 126
0.589753 4.21368 25.4691 -0.156533 0.6579 -0.736658 182 163 118
-8.84247 4.19186 19.8404 -0.00539163 -0.897394 -0.441198 201 172 111
-8.76936 4.17464 19.8823 -0.14605 -0.883193 -0.44569 197 167 107
-8.76122 4.17175 19.8936 0.00111453 -0.928277 -0.371888 197 168 107
-8.67437 4.1548 19.8914 -0.0517503 -0.916283 -0.397175 195 165 105
-8.65888 4.19603 19.8542 -0.243809 -0.698147 -0.673163 198 169 109
-8.6589 4.19604 19.8542 -0.243813 -0.700025 -0.671208 198 169 109
-8.60381 4.18502 19.8557 0.146166 -0.753812 -0.640627 198 168 108
-8.35509 4.13785 19.8172 -0.206751 -0.857735 -0.470685 191 161 101
-8.26473 4.11378 19.8724 -0.0887007 -0.907324 -0.410968 194 164 107
-8.13492 4.1228 19.7953 -0.431794 -0.671936 -0.601711 189 159 99
-7.69505 4.08045 19.8117 -0.106347 -0.876564 -0.469389 197 169 118
-7.4002 4.02244 19.7414 0.690997 -0.64381 -0.328682 198 171 122
-6.93694 4.00799 19.7805 0.45886 -0.434397 -0.775079 194 166 116
-7.19221 4.16018 20.6115 0.0479694 -0.93786 -0.343683 195 167 113
-7.14239 4.15463 20.6581 0.192188 -0.936157 -0.294404 191 164 107
-7.14681 4.15861 20.6835 0.178075 -0.937492 -0.298996 191 164 106
-7.08152 4.15804 20.6237 0.247241 -0.928658 -0.276524 193 166 110
-7.07208 4.15055 20.6182 0.877334 -0.253216 -0.407635 192 165 107
-7.04248 4.17335 20.8245 0.0998842 -0.928209 -0.358402 187 160 99
-7.04072 4.43175 22.2179 0.172673 -0.923379 -0.342863 189 161 109
-7.12947 4.43908 22.5033 0.728589 -0.585486 -0.355478 191 163 108
-6.43621 4.10442 20.6425 0.141409 -0.90163 -0.408738 193 166 110
-6.34372 4.08538 20.6359 -0.242213 -0.586442 -0.772929 194 168 112
-5.52495 4.38964 23.0924 0.407737 -0.871297 -0.273116 195 170 120
-5.50518 4.38964 23.0164 0.766503 -0.590059 -0.253581 194 170 120
-5.33934 4.31214 22.5205 -0.645701 -0.488863 -0.586585 194 169 122
-3.56493 4.29974 23.2773 0.555761 -0.7728 -0.306447 185 163 114
-3.55731 4.28288 23.2512 0.762325 -0.561726 -0.321442 185 162 114
-3.56916 4.30836 23.5579 0.668533 -0.674616 -0.312979 185 162 114
-3.53028 4.34672 23.8197 0.168442 -0.917793 -0.359559 185 161 113
-3.5323 4.35077 23.9065 0.665738 -0.676204 -0.3155 183 160 112
-3.48926 4.3486 23.5935 0.367301 -0.876628 -0.310828 185 163 114
-3.42019 4.35857 23.708 0.0105518 -0.937132 -0.348817 190 168 118
-3.40104 4.35114 24.004 0.149542 -0.732847 -0.663756 189 165 120
-3.32777 4.36605 23.9028 0.0419297 -0.937668 -0.344993 196 171 127
-3.1526 4.33261 23.8678 0.116963 -0.927053 -0.35622 195 171 126
-3.12488 4.33993 23.8015 0.0414753 -0.937606 -0.345217 194 171 124
-2.97262 4.26048 23.4846 0.158939 -0.917366 -0.364935 189 167 119
-2.2822 4.23606 23.6945 -0.522672 -0.547313 -0.653653 193 171 124
-2.2849 4.24362 23.6846 -0.152122 -0.916032 -0.371139 194 171 124
-2.20673 4.25279 23.6989 0.256543 -0.882065 -0.395155 188 166 119
-2.15274 4.29197 23.9887 0.122171 -0.885835 -0.447628 187 165 115
-1.56603 4.19892 23.786 0.0101906 -0.935918 -0.35207 186 165 117
-1.49353 4.19272 23.9749 -0.0890266 -0.910152 -0.404596 185 164 120
-1.42316 4.22035 24.0311 0.00782973 -0.935653 -0.352836 182 162 115
-1.39541 4.20605 23.9096 -0.0613457 -0.932021 -0.357173 182 161 115
-1.3549 4.22093 24.294 0.0080764 -0.934931 -0.354738 185 164 120
-1.23423 4.11768 23.505 0.215072 -0.883351 -0.416456 191 170 125
-1.14425 4.11945 23.6033 0.236607 -0.88065 -0.410455 193 171 127
-8.84328 4.25393 19.7823 -0.367527 -0.363356 -0.856094 203 172 116
-8.74346 4.21523 19.7331 0.349275 -0.827896 -0.438857 201 170 112
-8.66512 4.20394 19.7884 0.0139978 -0.931704 -0.362949 199 169 109
-8.69853 4.20606 19.7857 -0.0712586 -0.871791 -0.484668 198 168 108
-8.55476 4.20666 19.8009 0.290572 -0.925251 -0.243883 199 171 111
-8.42563 4.20139 19.7623 0.315712 -0.919432 -0.234457 199 170 112
-8.35019 4.17392 19.738 0.22181 -0.913374 -0.341392 197 167 107
-8.28878 4.19192 19.7002 0.323373 -0.917308 -0.232326 200 168 112
-7.69141 4.11564 19.7218 -0.133303 -0.896671 -0.422151 194 164 106
-7.4726 4.08915 19.7905 0.0473866 -0.89469 -0.444166 197 169 116
-7.41556 4.0989 19.8872 0.505718 -0.350275 -0.788389 197 171 117
-7.11056 4.03319 19.5508 0.175487 -0.832573 -0.525382 184 156 99
-7.04123 4.05765 19.598 0.0291393 -0.895829 -0.443442 182 153 96
-6.97445 4.05773 19.7157 0.17352 -0.581437 -0.794872 195 168 117
-6.93976 4.06531 19.7977 0.310418 -0.595551 -0.740918 196 169 119
-6.55735 4.16647 20.6307 0.120447 -0.940904 -0.316533 193 167 115
-6.55372 4.15446 20.6502 0.421347 -0.845919 -0.326938 192 166 113
-6.46423 4.16261 20.6616 0.277414 -0.801275 -0.530094 194 167 115
-6.35818 4.11626 20.4788 0.0489491 -0.939229 -0.339783 195 168 116
-6.27976 4.11015 20.5641 -0.641321 -0.362137 -0.676435 194 168 113
-5.32461 4.33346 22.4419 0.5713 -0.725536 -0.383685 194 170 124
-4.46146 4.21696 21.9808 0.729705 -0.505692 -0.460224 193 169 123
-4.35272 4.23189 22.0572 0.748947 0.255816 -0.611258 194 168 124
-3.31565 4.38714 23.6691 -0.00831288 -0.936713 -0.35 192 168 121
-3.23749 4.39099 23.8865 -0.624114 -0.282539 -0.728459 192 168 121
-3.19067 4.39088 23.9257 -0.767891 -0.308559 -0.561369 193 170 122
-2.98841 4.30471 23.412 0.0733215 -0.934176 -0.349197 190 168 119
-2.94247 4.30926 23.3744 0.0655215 -0.935169 -0.348089 188 165 118
-2.2442 4.27364 23.477 -0.810402 -0.177215 -0.55843 185 163 119
-2.13069 4.31041 24.0123 0.369595 -0.86655 -0.335396 185 166 116
-1.60683 4.22929 23.6734 0.0107648 -0.936608 -0.350215 187 166 118
-1.49153 4.22539 23.7948 0.0708086 -0.928742 -0.363902 180 158 109
-1.30478 4.14713 23.4241 -0.384797 -0.836578 -0.38996 187 168 120
1.16755 4.15397 24.8482 0.425286 -0.80698 -0.409775 158 143 92
1.18014 4.16112 24.6109 0.505928 -0.750528 -0.42514 165 149 101
1.55037 4.04704 24.167 0.467873 -0.77329 -0.427922 167 154 107
-8.77897 4.27228 19.7505 -0.493234 -0.565818 -0.660735 204 174 119
-8.65409 4.2432 19.6491 0.323401 -0.918683 -0.226789 204 174 120
-8.56069 4.23806 19.7093 0.189765 -0.940423 -0.282124 202 173 117
-8.43631 4.2346 19.6833 0.307042 -0.92194 -0.236116 201 172 116
-8.24454 4.19326 19.4764 0.364311 -0.90605 -0.215291 202 173 117
-7.83533 4.18573 19.6643 -0.184248 -0.140873 -0.972732 199 169 111
-7.71837 4.16813 19.6122 0.169896 -0.941264 -0.291817 197 167 107
-7.69768 4.15678 19.6606 -0.174819 -0.563929 -0.807108 195 163 101
-7.63243 4.16536 19.5896 0.781682 -0.28731 -0.553557 198 167 107
-7.58699 4.13966 19.6324 0.201673 -0.933909 -0.295198 191 160 99
-7.54084 4.14917 19.6664 -0.562166 -0.495769 -0.661954 191 161 99
-7.53995 4.14208 19.6464 -0.122764 0.199789 -0.972118 191 160 99
-7.34953 4.11953 19.5329 0.554704 -0.273809 -0.785705 176 147 83
-6.96497 4.0944 19.6669 0.126575 -0.941987 -0.310868 190 161 104
-6.47204 4.17818 20.5103 -0.655565 -0.338101 -0.67522 194 168 119
-6.46578 4.17705 20.5518 0.102934 -0.926761 -0.361274 194 168 118
-6.46581 4.17708 20.5519 0.103078 -0.926251 -0.362538 194 168 118
-4.8212 4.28446 21.8326 0.114878 -0.936273 -0.331958 195 169 116
-4.45088 4.08563 20.8849 0.434233 -0.816452 -0.380589 195 168 119
-4.42166 4.09559 21.0255 0.480343 -0.538228 -0.692518 195 170 123
-4.40381 4.26429 22.0331 0.7218 0.309978 -0.618804 195 170 125
-3.1174 3.96904 20.8279 -0.520877 -0.626006 -0.580347 188 165 116
-3.20683 4.43965 23.8176 -0.77481 -0.279319 -0.567142 191 167 121
-2.94656 4.35985 23.3074 -0.768545 -0.324431 -0.551438 190 166 122
-2.28701 4.28623 23.4402 -0.801502 -0.245042 -0.54548 186 163 117
-1.59828 4.25091 23.4322 -0.0327977 -0.935041 -0.353021 186 163 119
-1.49906 4.26196 23.6417 -0.199358 -0.908708 -0.366751 183 161 114
-1.47318 4.25595 23.5366 -0.0688813 -0.932732 -0.35393 186 163 118
-1.47811 4.25931 23.6853 0.0459328 -0.785555 -0.617084 182 160 113
1.06146 4.17433 24.509 0.402085 -0.822846 -0.401561 158 142 92
1.14105 4.17138 24.5968 0.528738 -0.73248 -0.428846 163 147 97
1.09941 4.16257 24.5615 0.469221 -0.779191 -0.415563 160 144 94
1.44664 4.08382 24.1515 0.362081 -0.783425 -0.505116 169 154 105
1.53971 4.05252 24.1151 -0.191256 -0.907171 -0.374782 171 155 109
-8.47957 4.28603 19.6894 0.0263592 -0.935946 -0.351155 201 172 118
-7.72538 4.20413 19.5299 0.0734 -0.941954 -0.327621 203 175 119
-7.66942 4.18451 19.6297 0.0734462 -0.0372274 -0.996604 188 158 97
-7.65645 4.17861 19.5895 0.715211 -0.131707 -0.686387 200 170 111
-7.59737 4.17432 19.582 0.498633 -0.436295 -0.749007 188 159 97
-7.6109 4.18114 19.6162 0.276178 -0.213816 -0.937021 188 159 97
-7.55695 4.1808 19.6151 0.0464746 -0.132839 -0.990047 186 158 96
-7.49347 4.17796 19.595 0.0288236 -0.325356 -0.945152 186 157 95
-7.42442 4.1677 19.5426 -0.0224037 -0.387488 -0.921602 185 155 95
-7.37872 4.1663 19.5336 -0.00121328 -0.234551 -0.972103 184 153 92
-7.32441 4.16398 19.5355 0.249065 -0.307714 -0.918302 182 151 89
-6.96358 4.14061 19.6005 0.783495 -0.504101 -0.363342 187 157 91
-6.92409 4.162 19.6724 0.796523 -0.580822 -0.167921 187 158 93
-6.44231 4.22439 20.4318 -0.649613 -0.342499 -0.678747 180 153 98
-6.37776 4.22627 20.3678 -0.351709 -0.716295 -0.602679 180 153 99
-5.97008 4.0351 19.5899 -0.653861 -0.371758 -0.658986 195 170 120
-5.51066 3.98171 19.3923 -0.394153 -0.665027 -0.634336 185 162 107
-4.81656 4.32386 21.7065 0.11263 -0.937501 -0.329253 193 167 112
-4.44394 4.09674 20.7197 0.480568 -0.786102 -0.388713 190 164 110
-4.408 4.11532 20.8483 0.48609 -0.830371 -0.2724 190 166 112
-4.22174 4.10313 20.7254 -0.589217 -0.614605 -0.524484 190 165 111
-4.22331 4.09162 20.6939 -0.568748 -0.635323 -0.522389 190 165 112
-4.40163 4.27635 21.9439 0.657476 -0.615303 -0.434887 194 169 123
-3.37203 4.06829 20.9968 0.618712 0.415445 -0.666784 188 164 113
-3.11576 4.02313 20.8255 0.0422135 -0.627904 -0.777145 186 164 108
-2.96012 4.39427 23.2437 -0.752908 -0.375263 -0.540655 191 168 123
-1.58153 4.01445 21.7281 0.73522 -0.559676 -0.382381 189 168 123
-1.5891 4.27383 23.4204 -0.315761 -0.868925 -0.381135 187 164 120
-1.37712 3.97973 21.5045 0.136736 -0.757682 -0.638139 185 164 116
-1.32022 3.97637 21.6626 0.732555 -0.556404 -0.392145 187 167 120
-1.27577 4.0068 21.7466 -0.0450065 -0.780734 -0.62324 185 165 116
-1.2676 4.0036 21.7599 0.0630976 -0.716837 -0.69438 186 165 117
-1.2161 3.97423 21.7453 0.272376 -0.81485 -0.511694 185 165 118
-1.16004 3.95493 21.7183 0.485135 -0.37139 -0.791652 184 164 116
1.16004 4.18273 24.2839 0.444986 -0.721212 -0.530886 170 153 108
1.44236 4.12008 23.991 -0.0632981 -0.933419 -0.353161 173 156 108
1.55133 4.09539 24.0674 0.0635029 -0.917406 -0.392853 174 158 112
1.51581 4.11319 23.9674 0.351859 -0.845851 -0.400913 172 156 111
1.56393 4.09893 24.0317 0.126766 -0.920966 -0.368446 171 156 112
-7.62516 4.21404 19.4093 0.76782 -0.625203 -0.139906 204 176 123
-7.62005 4.24886 19.5036 -0.570143 -0.471642 -0.672675 203 175 120
-7.57585 4.25148 19.5195 -0.577763 -0.456124 -0.676862 202 173 120
-7.56731 4.2165 19.5691 0.0480444 -0.127005 -0.990738 190 162 106
-7.53797 4.25783 19.5536 -0.573725 -0.470458 -0.670455 191 162 106
-7.47213 4.21918 19.5858 0.0245071 -0.377172 -0.925819 189 159 103
-7.50427 4.26315 19.5891 -0.573144 -0.475539 -0.66736 200 171 119
-7.40747 4.21901 19.5729 0.0166652 -0.937359 -0.347965 198 169 114
-6.41127 4.08355 19.3301 -0.642739 -0.354901 -0.678919 187 158 96
-6.36637 4.26102 20.3159 -0.304184 -0.756658 -0.578741 171 144 85
-6.34047 4.24552 20.3814 -0.476391 -0.577851 -0.662676 174 148 91
-5.57901 4.00648 19.3485 -0.618707 -0.492379 -0.61218 189 165 115
-5.53581 4.00011 19.2864 -0.631115 -0.454058 -0.628908 184 162 104
-5.09422 4.15982 20.3854 0.483329 0.0732016 -0.872373 190 165 110
-5.0161 4.13354 20.2834 0.428325 0.541491 -0.723412 191 165 110
-4.86142 4.02511 19.843 -0.703552 -0.318811 -0.635117 190 162 107
-4.41854 4.17796 20.8504 0.634029 -0.594576 -0.494456 185 160 101
-4.25681 4.11382 20.5407 -0.564736 -0.644741 -0.515153 184 160 101
-4.27054 4.11967 20.5384 -0.0621395 -0.86243 -0.502348 184 159 100
-4.22339 4.10576 20.6653 -0.243325 -0.810738 -0.532444 187 162 108
-4.11135 4.04867 20.3002 0.79276 -0.539621 -0.283443 182 158 101
-4.06185 4.08055 20.3942 0.787634 -0.54633 -0.28488 183 158 99
-3.42746 4.04413 20.6722 0.0329607 -0.882636 -0.4689 187 163 105
-3.35732 4.05969 20.6294 -0.0122744 -0.882061 -0.470975 181 157 97
-3.35732 4.05969 20.6294 -0.0122744 -0.882061 -0.470975 181 157 97
-3.35325 4.06348 20.6369 -0.0177329 -0.884051 -0.467054 181 157 97
-3.07094 4.06499 20.8925 0.384887 -0.467299 -0.795923 186 163 106
-2.77772 4.00032 20.6394 0.671268 -0.667787 -0.321652 185 162 108
-2.78699 4.05169 20.9017 -0.00212376 -0.925478 -0.378796 186 163 108
-3.01051 4.43967 23.2346 -0.656475 -0.552771 -0.513308 188 165 115
-3.00172 4.43771 23.2099 -0.644673 -0.578277 -0.499992 187 165 115
-1.58279 4.06514 21.6807 0.336319 -0.839518 -0.42673 187 168 123
-1.5653 4.05294 21.7324 0.607765 -0.708439 -0.358798 188 169 123
-1.49586 4.03474 21.7065 0.100639 -0.883514 -0.457465 186 166 119
-1.43783 4.03571 21.6169 -0.234376 -0.764225 -0.600856 183 163 114
-1.4443 4.04354 21.5891 0.0693681 -0.938003 -0.339615 182 163 116
-1.37378 3.99557 21.3095 0.349659 -0.8552 -0.382585 178 160 109
-1.31097 3.98906 21.4107 0.136305 -0.922346 -0.361524 180 160 110
-1.30445 4.0066 21.3888 0.178486 -0.924946 -0.335585 178 158 107
-1.21837 4.01382 21.6053 0.212255 -0.917176 -0.337249 180 161 110
-1.17705 4.03019 21.7068 0.20573 -0.918599 -0.337419 179 160 109
1.21881 4.18218 23.884 0.45292 -0.711411 -0.537362 171 154 108
1.23917 4.15372 23.6966 0.117902 -0.906692 -0.404981 171 154 109
1.31068 4.17059 23.9043 0.406198 -0.750404 -0.521438 171 154 108
1.45271 4.19526 24.012 0.375032 -0.775782 -0.507459 175 158 113
1.52242 4.17138 23.9365 0.491108 -0.758491 -0.428375 177 161 117
1.55455 4.14466 23.9837 -0.049828 -0.934208 -0.353231 180 163 119
-12.3265 4.13786 16.1152 0.958532 0.22693 -0.172391 204 175 119
-12.3129 4.12219 16.0857 0.930309 0.290296 -0.224175 204 175 119
-7.61219 4.24075 19.2983 0.451842 -0.806487 -0.381337 203 173 122
-7.51413 4.25357 19.21 0.219452 -0.932 -0.288472 201 171 117
-7.52379 4.24007 19.3435 0.713178 -0.6854 -0.146986 202 173 122
-6.85246 4.14793 19.2387 -0.428884 0.36868 -0.824702 187 157 94
-6.42349 4.13426 19.158 -0.612567 -0.447174 -0.651765 184 155 87
-6.34401 4.13104 19.2405 -0.620195 -0.43479 -0.652929 185 158 90
-6.19257 4.25981 20.0685 0.277464 -0.907688 -0.314827 192 164 105
-6.13789 4.27192 20.1908 0.294439 -0.90155 -0.317039 188 159 98
-6.07108 4.2854 20.2025 -0.216048 -0.880935 -0.421041 186 157 95
-5.64086 4.08264 19.4265 -0.676202 -0.321613 -0.662809 197 168 114
-5.27185 3.95338 18.8055 0.365621 -0.0670086 -0.928349 191 164 107
-5.22806 3.98 18.9175 0.0459017 0.167255 -0.984845 193 165 109
-5.20943 4.00635 19.059 0.0245366 0.130895 -0.991093 189 163 108
-5.182 4.03266 19.1972 0.51293 -0.336104 -0.789897 194 167 114
-5.14048 4.12086 19.7324 0.253775 0.700469 -0.667039 192 165 115
-5.10897 4.17987 20.2249 0.849783 -0.0148689 -0.526923 194 168 117
-4.92555 4.10163 19.7763 -0.683029 0.103419 -0.723032 192 165 119
-4.96116 4.09635 19.8719 -0.384241 -0.554984 -0.737802 192 166 118
-4.91155 4.1028 19.897 -0.559665 -0.329006 -0.760612 193 166 119
-4.79826 3.99943 19.2987 -0.553168 0.388233 -0.737075 192 165 119
-4.82734 4.07547 19.7556 -0.69625 -0.351846 -0.625652 192 166 118
-4.79125 4.03658 19.5989 0.0835313 0.738814 -0.668713 192 165 118
-4.3479 3.92306 18.9862 -0.730295 -0.221265 -0.646306 192 167 117
-4.80094 4.37467 21.5396 -0.0144239 -0.938518 -0.344928 192 164 109
-4.21617 4.11582 20.455 -0.700694 -0.405806 -0.586813 183 158 97
-4.12526 4.13314 20.3527 -0.552036 -0.135511 -0.822735 180 155 94
-3.52707 4.0787 20.5211 0.746989 -0.592847 -0.300899 181 158 94
-3.44608 4.05493 20.4634 -0.608174 -0.613458 -0.50378 182 158 97
-3.44425 4.05585 20.455 -0.153902 -0.915689 -0.371251 182 158 97
-3.44455 4.0575 20.4764 -0.0358478 -0.890669 -0.453237 182 158 97
-3.32257 4.07721 20.4506 0.579236 -0.679568 -0.450193 178 154 91
-3.29933 4.05435 20.4677 0.656224 -0.581766 -0.48054 179 154 92
-3.29935 4.05432 20.4675 0.611424 -0.64166 -0.463069 178 154 92
-3.28787 4.06887 20.5311 0.104704 -0.903131 -0.416402 180 155 93
-3.19337 4.0405 20.5306 -0.73203 -0.394775 -0.555234 183 159 98
-3.14626 4.04165 20.5091 -0.637005 -0.563595 -0.525914 182 159 97
-3.0039 4.1537 21.105 -0.139541 -0.918419 -0.370183 185 161 101
-2.74949 4.02509 20.4361 -0.171507 -0.909892 -0.377733 178 155 92
-2.69695 4.00939 20.5624 0.611488 -0.623147 -0.487617 181 159 99
-1.58305 4.10228 21.5945 -0.0793207 -0.933898 -0.34863 181 160 111
-1.49672 4.07594 21.6425 -0.114685 -0.92862 -0.352862 182 161 110
-1.31085 4.02762 21.3094 0.579225 -0.731256 -0.360226 176 155 103
-1.30508 4.00775 21.3839 0.45876 -0.817577 -0.348005 178 158 107
-1.21698 4.03675 21.4138 0.400168 -0.849433 -0.34399 173 153 98
-1.1217 4.03939 21.5567 0.290439 -0.894639 -0.339508 173 153 96
-1.01024 4.06788 21.6593 0.788768 -0.201589 -0.580696 167 148 90
-0.939736 4.05663 21.7496 0.711079 -0.424783 -0.56029 164 145 86
1.18595 4.10366 23.1885 0.317671 -0.866027 -0.386113 170 155 109
1.2311 4.1782 23.4955 -0.0176027 -0.933538 -0.358046 171 156 111
1.30561 4.21864 23.7646 0.115089 -0.908095 -0.402638 173 156 113
1.35913 4.22538 23.9756 -0.0569042 -0.913178 -0.403568 172 154 112
1.38384 4.21485 23.8022 0.40475 -0.753035 -0.518764 173 158 115
1.43137 4.17418 23.7213 0.527418 -0.730588 -0.433672 174 160 116
-12.1179 4.05746 15.5867 0.95468 -0.278889 0.103956 202 172 113
-12.2144 4.1631 15.9265 0.976476 0.169591 -0.133167 201 170 110
-12.363 4.17364 16.0615 0.981178 0.153602 -0.117028 203 173 113
-12.2221 4.144 16.0396 0.92706 0.268845 -0.26131 201 172 112
-12.1912 4.17629 16.0677 0.398769 -0.909858 -0.114638 199 169 111
-7.50516 4.28283 19.2794 0.814405 -0.563849 -0.137182 200 170 115
-6.81084 4.21305 19.1274 0.233005 -0.663612 -0.710864 198 169 115
-6.4285 4.18622 19.1141 -0.521015 -0.612995 -0.593953 188 158 94
-6.38575 4.14872 19.1536 -0.504828 -0.644796 -0.573922 184 155 88
-6.29781 4.15265 19.2276 -0.602106 -0.484285 -0.634773 184 157 89
-6.29643 4.15245 19.2186 -0.596948 -0.495724 -0.630802 184 157 89
-6.29648 4.15248 19.2188 -0.598845 -0.491552 -0.632267 184 157 89
-6.29782 4.15265 19.2276 -0.600808 -0.487234 -0.633745 184 157 89
-6.21362 4.32304 20.1025 -0.473021 -0.697721 -0.537993 185 156 91
-6.23841 4.32229 20.1225 0.184282 -0.926922 -0.326888 187 158 94
-6.16715 4.3266 20.1291 -0.0956284 -0.904976 -0.414577 182 152 88
-6.13814 4.31739 20.1221 -0.0191327 -0.847119 -0.531058 182 153 89
-6.08614 4.30815 20.1488 0.187624 -0.907072 -0.376852 183 154 91
-5.98697 4.28782 20.1197 -0.243695 -0.796803 -0.552917 190 160 99
-5.92558 4.30557 20.1133 -0.328485 -0.823853 -0.461914 195 165 106
-5.8704 4.27449 20.2068 -0.333069 -0.79505 -0.506913 194 164 107
-5.26413 4.03257 18.9508 0.691319 0.379428 -0.614909 192 163 105
-5.29083 4.02458 18.9182 0.702771 0.363159 -0.611743 193 164 103
-5.23122 4.04847 19.0367 0.107781 0.174043 -0.978822 187 160 100
-5.18738 4.0684 19.1519 0.132418 0.373734 -0.918035 187 160 100
-5.01211 4.13302 19.8385 -0.203235 -0.750082 -0.629343 192 166 118
-4.8777 4.11068 19.517 -0.590779 -0.125374 -0.797033 192 163 111
-4.87555 4.11051 19.5293 -0.552374 -0.132163 -0.823052 192 163 111
-4.72562 3.99416 19.1706 -0.206927 0.54189 -0.814578 194 169 120
-4.65331 4.02015 19.1141 -0.317113 -0.278258 -0.906649 187 161 103
-4.69426 4.00669 19.0995 -0.00634392 -0.178058 -0.984 188 163 106
-4.67713 4.0159 19.1047 -0.0711274 -0.226005 -0.971526 187 162 104
-4.52299 4.00243 19.1694 -0.202437 -0.321408 -0.925049 187 162 106
-4.56134 4.00627 19.173 -0.51941 -0.417017 -0.745862 191 166 114
-4.45293 3.97629 19.0483 -0.700325 -0.360164 -0.616301 188 163 110
-4.53005 4.0096 19.2294 0.112721 -0.504525 -0.856008 188 163 107
-4.41483 3.9551 19.128 -0.695362 -0.382323 -0.608524 193 168 117
-4.40867 3.95263 18.9907 0.0737774 -0.944031 -0.321502 192 167 116
-4.3273 3.92923 18.9633 0.0718407 -0.943789 -0.322647 192 167 117
-3.84701 3.77514 18.2909 0.342624 -0.490079 -0.801518 186 161 108
-3.83355 3.81527 18.4434 0.636134 -0.623232 -0.45488 190 165 116
-4.17929 4.14608 20.3495 -0.50337 -0.254489 -0.825744 184 159 100
-3.81964 3.97428 19.4618 0.0640461 0.738983 -0.670673 187 161 107
-3.36558 4.0906 20.4649 0.629821 -0.621202 -0.466298 178 154 91
-3.32405 4.08906 20.337 0.296362 -0.792469 -0.533069 178 153 92
-3.3704 4.12121 20.4291 0.118095 -0.932935 -0.340126 179 155 93
-3.3704 4.12121 20.4291 0.118095 -0.932935 -0.340126 179 155 93
-3.14058 4.07542 20.4026 0.168496 -0.771444 -0.613582 179 154 91
-3.09119 4.0794 20.409 0.284027 -0.775248 -0.564198 177 153 89
-3.05255 4.08236 20.4504 0.753037 -0.57556 -0.318852 177 154 92
-3.0327 4.08341 20.4928 0.721879 -0.606622 -0.333019 177 154 91
-3.01994 4.11222 20.6602 0.136298 -0.937947 -0.31887 177 155 91
-2.71636 4.03112 20.3429 0.614635 -0.620109 -0.487533 179 155 93
-2.39905 4.02365 20.4795 -0.779323 -0.306887 -0.54633 176 152 89
-1.54248 4.05803 21.1257 0.0844832 -0.938699 -0.334225 173 152 97
-1.30569 4.05308 21.2453 0.267498 -0.904151 -0.3331 176 155 104
-1.21313 4.05714 21.3022 0.267115 -0.903745 -0.334507 176 155 104
-0.961045 4.07361 21.4894 0.790781 0.0351135 -0.611092 179 160 108
-0.904761 4.09755 21.5764 0.708086 -0.334496 -0.621874 181 163 113
-0.924368 4.0775 21.6596 -0.0459656 -0.937449 -0.345076 173 154 98
1.1811 4.14258 23.0246 0.391822 -0.830027 -0.396903 176 160 116
1.29077 4.22938 23.7066 0.0918663 -0.914541 -0.393922 172 157 113
-11.9485 4.0064 15.1159 0.281431 -0.840802 -0.462437 200 172 114
-11.93 4.04968 15.1454 0.420632 -0.643921 -0.639089 199 171 114
-11.9074 4.04556 15.3425 0.777019 -0.541329 -0.321253 199 170 112
-11.9261 4.09257 15.6175 0.515578 -0.808818 -0.282828 197 167 109
-11.8847 4.13416 15.6206 0.607854 -0.651636 -0.453745 193 163 104
-11.9139 4.1041 15.6976 0.428235 -0.859605 -0.278737 198 167 111
-6.44266 4.2293 19.0806 0.140893 -0.921207 -0.362666 196 167 113
-6.3327 4.18292 19.0114 -0.110884 -0.916282 -0.38488 190 160 99
-6.31547 4.18038 19.1241 -0.550212 -0.582209 -0.598581 186 157 93
-6.32051 4.18169 19.1292 -0.536244 -0.603968 -0.589631 186 156 93
-6.16819 4.16031 19.0357 -0.619808 -0.4478 -0.644448 187 157 94
-6.10458 4.19177 19.042 0.0768794 -0.945807 -0.315498 190 160 100
-6.15726 4.35632 20.0395 0.151977 -0.939915 -0.305716 182 153 89
-6.08373 4.34521 20.0616 0.0855629 -0.890743 -0.446381 184 155 92
-5.84783 4.33025 19.9669 -0.0766134 -0.764842 -0.639646 195 164 108
-5.83054 4.34503 20.0542 -0.248826 -0.870028 -0.425601 194 165 107
-5.73927 4.32644 20.0219 0.132862 0.712967 -0.688496 193 164 106
-5.43533 4.13617 19.1271 0.651371 0.391169 -0.650155 191 162 100
-5.38288 4.11973 19.1946 0.734481 0.318451 -0.599272 192 163 101
-5.24335 4.13009 19.2158 0.150147 0.418502 -0.895719 184 156 94
-4.75943 4.10401 19.2933 -0.488643 -0.0644778 -0.870098 188 161 102
-4.76325 4.08388 19.3391 -0.519298 -0.0470627 -0.853296 189 163 108
-4.63203 4.04838 19.0711 -0.278577 -0.603972 -0.746735 185 158 98
-4.57281 4.04708 19.0855 -0.422735 -0.207913 -0.882081 185 159 97
-4.53354 4.0434 19.0784 -0.682566 -0.371791 -0.629186 185 158 96
-4.49556 4.03993 19.076 -0.679872 -0.422223 -0.599585 183 157 95
-4.3429 3.93386 18.6402 0.392838 -0.708017 -0.586848 183 156 92
-4.32099 3.9607 18.868 0.133235 -0.870274 -0.474206 186 160 98
-4.21208 4.07153 19.5562 -0.616753 -0.570672 -0.542171 190 164 115
-3.63671 3.92238 18.8566 0.276414 0.536996 -0.797013 192 167 117
-3.87398 4.15164 20.154 -0.652762 -0.530242 -0.541059 193 170 118
-3.32834 4.14115 20.3223 0.321368 -0.868513 -0.377369 186 162 107
-3.27413 4.13398 20.376 0.268582 -0.718194 -0.64192 183 159 102
-3.22162 4.12033 20.4054 0.294887 -0.632425 -0.716296 181 157 97
-3.16651 4.11633 20.3787 -0.125755 -0.0873224 -0.988211 182 157 99
-3.11849 4.12268 20.3968 -0.251289 -0.213196 -0.94414 181 156 97
-3.06765 4.1241 20.3901 0.490044 -0.243098 -0.837114 182 157 99
-2.96392 4.10806 20.4582 0.0801564 -0.850071 -0.520533 179 154 92
-2.89969 4.08297 20.3563 0.405567 -0.342099 -0.847634 179 154 92
-2.79445 4.10353 20.287 -0.62409 -0.503643 -0.597373 186 162 105
-2.75719 4.0626 20.3503 -0.504238 -0.526971 -0.684139 177 153 89
-2.70792 4.07695 20.3703 0.197579 -0.774778 -0.600568 179 155 92
-2.6502 4.07082 20.4365 0.282519 -0.782826 -0.554406 179 154 92
-2.58442 4.09889 20.3737 0.153873 -0.935883 -0.316932 179 155 95
-2.45086 4.0883 20.4015 0.2184 -0.716216 -0.662825 181 155 97
-1.2916 4.07272 21.1857 0.231593 -0.914888 -0.330674 182 161 115
-1.28245 4.095 21.0681 -0.795447 -0.35238 -0.493045 187 164 118
-0.924038 4.09778 21.4584 0.393391 -0.826496 -0.402676 184 165 118
-0.845137 4.10814 21.6209 0.702991 -0.464081 -0.538917 182 163 115
-0.770175 4.12016 21.7288 0.352163 -0.821612 -0.448257 182 162 116
1.17971 4.17509 23.0498 0.545515 -0.719832 -0.429248 176 159 117
-11.9536 4.04756 15.0834 0.469139 -0.632542 -0.616278 199 170 114
-11.9615 4.10069 15.1234 0.721873 -0.623189 -0.300888 195 165 108
-11.9292 4.0888 15.1047 0.341389 -0.595473 -0.727231 196 166 108
-11.9197 4.09197 15.1854 0.414775 -0.519051 -0.74736 196 167 109
-11.9125 4.13607 15.3342 0.824608 -0.182747 -0.535374 194 165 104
-11.9086 4.10988 15.394 0.776435 -0.543042 -0.319771 196 167 107
-11.9118 4.15339 15.5189 0.904411 -0.124689 -0.408036 195 164 106
-11.9122 4.15456 15.5238 0.904316 -0.127146 -0.407488 195 164 106
-6.45805 4.27346 19.0507 -0.595436 -0.489769 -0.636854 198 169 120
-6.32119 4.24457 18.9584 -0.541266 -0.4973 -0.67803 197 169 117
-6.2815 4.20458 18.9918 -0.21748 -0.530792 -0.819123 195 166 108
-6.28291 4.20393 18.9856 -0.245405 -0.529927 -0.81176 195 166 108
-6.20368 4.22838 18.943 -0.625084 -0.398947 -0.670903 198 168 115
-6.17587 4.19855 18.9814 0.0784774 -0.927671 -0.365059 191 162 104
-6.10605 4.21977 18.92 0.300384 -0.902683 -0.308111 198 168 114
-5.98984 4.36612 19.9648 0.0492842 -0.851049 -0.522768 195 166 107
-5.92493 4.37405 19.8604 -0.475652 -0.701499 -0.530711 196 166 109
-5.92783 4.35393 20.027 0.148711 -0.939891 -0.307391 195 166 107
-5.80121 4.33369 19.7417 -0.518922 -0.655949 -0.548135 191 161 104
-5.42046 4.24789 19.665 -0.584326 -0.167193 -0.794109 191 162 100
-5.00008 4.24428 19.6174 -0.64481 -0.289297 -0.70748 189 162 102
-5.00182 4.25051 19.675 -0.698349 -0.141851 -0.70156 190 163 103
-4.82002 4.14175 19.4031 -0.713722 -0.065471 -0.697363 193 165 107
-4.81983 4.1416 19.4024 -0.717837 -0.0641066 -0.693253 193 165 107
-4.79697 4.1646 19.3617 -0.578193 -0.2955 -0.760508 190 163 100
-4.69437 4.14211 19.2859 -0.697761 -0.354074 -0.622705 186 158 93
-4.67763 4.11891 19.2218 -0.576638 -0.437045 -0.690275 184 158 94
-4.6114 4.10116 19.1061 -0.588276 -0.453928 -0.669239 182 155 90
-4.61091 4.10123 19.1066 -0.586152 -0.454497 -0.670715 182 155 90
-4.6104 4.1092 19.1076 -0.643866 -0.421167 -0.638792 181 155 89
-4.46112 4.06875 18.9338 -0.67951 -0.425369 -0.597769 184 158 92
-4.30229 3.93992 18.4169 0.64924 -0.623762 -0.43521 185 159 95
-4.31034 4.01039 18.7548 -0.60989 -0.572356 -0.548126 186 160 99
-4.16255 4.00763 18.9911 0.561622 0.443582 -0.698439 190 163 108
-3.36578 4.16462 20.2187 0.165667 -0.503245 -0.848115 193 171 119
-3.32849 4.17586 20.2267 0.381693 -0.850776 -0.361235 193 170 118
-3.17499 4.19164 20.2967 -0.73161 -0.31642 -0.603842 195 171 120
-3.05769 4.15339 20.321 0.472863 -0.646954 -0.598206 192 168 114
-2.75025 4.10995 20.2934 -0.565936 -0.578285 -0.587624 189 164 109
-2.70619 4.12224 20.3016 0.687536 -0.507218 -0.519639 189 166 113
-2.52279 4.10759 20.3382 0.0167232 -0.311943 -0.949954 186 161 106
-1.38585 4.10818 21.0331 0.589448 -0.725628 -0.354987 185 164 115
-1.32451 4.11014 21.0475 -0.82084 -0.245691 -0.515615 187 164 116
-1.29273 4.10023 21.0247 0.300194 -0.894601 -0.331018 187 164 118
-1.26477 4.10294 20.8589 0.0452612 -0.937047 -0.346259 187 164 115
-1.19012 4.07739 20.8464 0.305008 -0.892547 -0.332158 188 166 117
-1.19048 4.07854 20.8426 0.170983 -0.92866 -0.329174 188 166 116
-1.1928 4.0769 20.8445 0.137907 -0.933829 -0.330069 188 166 117
-0.841865 3.96837 20.3263 0.0177974 -0.938047 -0.346052 181 160 109
-0.801901 3.92115 20.1977 0.584853 -0.294327 -0.755856 181 160 111
-0.728752 3.91296 20.2011 0.601629 0.321839 -0.731069 180 159 112
-0.770556 4.1676 21.6562 0.68763 -0.608335 -0.396352 183 163 117
-0.671677 3.93135 20.1905 -0.524411 -0.622179 -0.58128 181 160 110
-0.659204 3.9647 20.3698 0.424322 -0.765538 -0.483636 181 160 112
-0.58577 3.92507 20.184 -0.399136 -0.527707 -0.74981 180 159 109
-0.547522 3.95629 20.3965 0.803378 -0.075231 -0.590698 180 159 110
-11.9314 4.13704 15.0936 0.897475 -0.218907 -0.382908 194 164 102
-11.9061 4.22152 15.5678 0.896498 -0.214022 -0.387926 190 159 97
-11.8894 4.18651 15.6014 0.898874 -0.185013 -0.397235 192 161 102
-11.86 4.19968 15.5963 0.872128 0.0167141 -0.488991 191 161 102
-10.5804 4.61779 18.6978 -0.403055 0.149668 -0.902855 198 168 113
-10.6521 4.63674 18.7624 -0.489755 0.01073 -0.871794 197 167 112
-6.30267 4.28196 19.0209 -0.51224 -0.641423 -0.571128 196 168 118
-6.20991 4.25657 18.9243 -0.605478 -0.481792 -0.633461 199 171 118
-5.98999 4.40652 19.9055 0.189809 -0.922935 -0.334907 196 167 111
-5.86032 4.39135 19.7917 -0.517434 -0.657637 -0.547518 194 165 110
-5.91634 4.41952 19.8168 -0.504835 -0.174852 -0.845321 197 168 115
-5.77936 4.37414 19.6722 0.165594 -0.937851 -0.304981 193 164 108
-5.44642 4.20988 18.9213 -0.656385 -0.408608 -0.634191 190 161 97
-5.47271 4.18582 18.8791 -0.644994 -0.436891 -0.626983 189 159 98
-5.40711 4.33522 19.6982 0.055166 -0.335908 -0.940278 177 151 89
-5.34362 4.32817 19.6673 -0.466503 -0.496999 -0.731688 182 156 92
-5.29487 4.30868 19.546 -0.332253 -0.729485 -0.597879 187 159 97
-4.93235 4.25834 19.5892 -0.701705 -0.319122 -0.637001 186 158 95
-4.88297 4.2445 19.5547 -0.715026 -0.250148 -0.652812 186 159 95
-3.12831 4.1974 20.2855 -0.507435 -0.405331 -0.760405 194 169 119
-3.05384 4.19337 20.2341 0.737903 -0.598836 -0.311279 193 169 118
-2.80325 3.89395 18.5923 0.438938 0.440782 -0.782972 190 165 116
-1.36145 4.19497 21.0143 -0.830325 -0.147501 -0.537404 185 163 111
-1.29074 4.12766 20.8777 -0.773337 -0.134306 -0.619606 187 164 113
-1.16676 4.02634 20.1937 0.734067 -0.155581 -0.661014 181 159 102
-1.19637 4.0697 20.5936 0.323755 -0.886213 -0.331375 185 163 110
-1.1853 4.01895 20.2617 -0.089835 -0.935835 -0.340796 183 160 103
-0.878141 3.98704 20.2437 -0.831535 0.00579412 -0.555442 179 158 103
-0.761592 3.95148 20.1689 0.559025 -0.627349 -0.542147 177 157 105
-0.717135 3.95146 20.2363 -0.760704 -0.230558 -0.606771 179 159 108
-0.65661 3.96136 20.1679 -0.839502 -0.225409 -0.494395 178 158 103
-0.607706 3.97065 20.2116 0.79085 -0.422487 -0.442789 174 156 101
-0.572577 3.94128 20.1728 0.414881 -0.388604 -0.822715 177 157 105
-0.583444 3.94569 20.2376 0.590429 -0.599875 -0.539948 179 159 107
-0.527354 3.91743 20.1648 0.712489 -0.180152 -0.678163 178 158 108
-0.465256 3.96703 20.369 0.457994 -0.811845 -0.362147 177 156 106
-0.32924 3.96372 20.3974 0.294076 -0.687018 -0.664474 177 158 107
-11.9527 4.1581 15.1339 0.884842 -0.276921 -0.374659 193 164 101
-11.9477 4.1904 15.2021 0.906192 -0.0933888 -0.412426 190 161 97
-11.9477 4.19043 15.2021 0.906173 -0.0936009 -0.412419 190 161 97
-11.9201 4.20152 15.3661 0.898558 0.0034509 -0.438841 191 160 97
-11.8824 4.25082 15.63 0.900134 -0.147092 -0.410029 189 159 96
-11.8588 4.28076 15.6947 0.902694 -0.130184 -0.410117 189 160 98
-10.5876 4.68557 18.6674 -0.48684 0.0388219 -0.872628 203 173 122
-10.5929 4.67334 18.7075 -0.480843 -0.449341 -0.752916 202 172 121
-10.4911 4.68157 18.6119 -0.410807 0.248843 -0.877106 203 174 123
-6.34125 4.33232 19.0354 -0.428145 -0.243152 -0.870384 195 166 114
-6.29075 4.33487 19.0144 -0.475295 -0.46047 -0.749709 195 166 113
-6.04628 4.4605 19.7878 0.537807 -0.773924 -0.334373 200 171 122
-5.98962 4.42999 19.7629 0.483937 -0.810968 -0.32884 201 173 123
-5.96418 4.44259 19.7554 0.778723 -0.596062 -0.195706 199 170 116
-5.92493 4.4565 19.7358 0.144303 -0.921255 -0.3612 197 169 119
-5.48968 4.24466 18.8747 -0.530552 -0.641939 -0.55356 193 165 105
-5.57405 4.3726 19.5444 0.243872 0.559814 -0.791919 191 162 103
-5.33454 4.35427 19.54 -0.493873 -0.247523 -0.83356 187 160 99
-5.07446 4.35145 19.6185 -0.44671 -0.372586 -0.813407 182 155 89
-4.91668 4.29928 19.4566 -0.376713 -0.807775 -0.453417 180 152 84
-4.80186 4.27789 19.4859 -0.656258 -0.470936 -0.589529 187 161 95
-4.75762 4.25785 19.4803 -0.665406 0.180539 -0.724321 187 160 95
-4.59637 4.15739 19.0706 -0.674536 -0.432386 -0.598368 184 157 91
-2.78454 3.95049 18.657 0.377535 -0.0274531 -0.925588 187 161 112
-2.73623 3.9076 18.6252 0.193043 0.276861 -0.94132 190 165 117
-2.6764 3.90154 18.6218 0.557893 0.402881 -0.725564 190 167 117
-0.935446 4.03536 20.2623 -0.803357 -0.351925 -0.480381 176 155 95
-0.891452 4.01558 20.2163 -0.814682 -0.316908 -0.485657 176 154 96
-0.839159 4.04204 20.1835 -0.82194 0.0973035 -0.561201 175 154 95
-0.781024 4.02992 20.1614 -0.82831 -0.21666 -0.516682 174 154 94
-0.738 4.0147 20.1724 -0.837655 -0.226111 -0.497199 176 155 94
-0.688919 4.01932 20.1671 -0.707511 -0.39328 -0.587162 174 154 92
-0.694741 3.99795 20.1762 -0.805687 -0.266355 -0.529079 176 156 96
-0.642856 4.01313 20.1533 -0.837363 -0.242239 -0.490045 172 152 91
-0.650991 3.98313 20.1705 -0.846214 -0.173358 -0.503853 176 156 98
-0.538195 3.99556 20.2065 0.383935 -0.409493 -0.827593 175 156 98
-0.484407 3.9919 20.2114 0.503693 -0.290917 -0.813426 174 155 99
-0.450419 3.99601 20.1436 0.678302 -0.614192 -0.403329 169 150 94
-0.41426 3.99628 20.2159 0.584709 -0.715112 -0.383054 170 150 97
-0.394352 4.01742 20.3436 0.122037 -0.917118 -0.379476 170 152 96
-0.309209 4.00039 20.3812 0.039359 -0.934207 -0.354553 174 156 102
-0.276153 4.02031 20.551 -0.184335 -0.681246 -0.708466 179 159 106
-0.227089 3.99954 20.3311 -0.0535912 -0.759052 -0.64882 174 155 102
-0.0961944 4.01333 20.4262 -0.321561 -0.656478 -0.682375 179 159 105
-12.5659 4.43282 16.0281 0.90197 0.259619 -0.345034 192 162 97
-12.543 4.46877 16.0702 0.987219 -0.0109704 -0.158992 190 159 95
-10.5693 4.70877 18.6116 -0.41539 0.233296 -0.879218 203 174 122
-10.4235 4.69508 18.6215 -0.412119 0.250817 -0.875927 202 173 121
-10.097 4.59318 18.1286 -0.426431 0.224745 -0.876154 203 173 120
-10.035 4.60935 18.132 -0.497538 0.0309055 -0.866891 201 171 118
-6.01696 4.48287 19.7697 0.655604 -0.664644 -0.358374 199 169 121
-5.9249 4.48548 19.6254 0.11618 -0.928707 -0.352145 197 167 117
-5.77614 4.47628 19.6482 -0.671747 -0.345513 -0.655268 189 165 108
-5.67236 4.41685 19.4483 -0.175807 -0.904124 -0.389424 196 167 115
-5.51695 4.31321 18.9121 -0.648925 -0.4277 -0.629261 196 168 112
-5.44962 4.25635 18.86 -0.3862 -0.40533 -0.828587 193 165 106
-5.36688 4.39104 19.4933 -0.243717 -0.873177 -0.422095 190 161 100
-5.31831 4.38568 19.4403 0.00981719 -0.916094 -0.400843 189 161 98
-5.2395 4.36974 19.4891 -0.435763 -0.637964 -0.634911 186 157 92
-5.06138 4.3426 19.417 -0.611955 -0.546592 -0.57162 177 151 83
-4.51731 4.14865 18.7421 0.461386 -0.852066 -0.247198 181 155 87
-2.75838 3.99889 18.6824 0.300191 0.0894975 -0.949671 182 157 100
-2.64425 3.97108 18.73 -0.0981625 0.708924 -0.69842 187 163 112
-2.64831 3.97502 18.7611 0.124046 0.706864 -0.696388 187 163 112
-2.54848 3.90202 18.4422 0.545433 -0.694159 -0.469729 187 163 113
-2.54782 3.90035 18.4377 0.566302 -0.671053 -0.478529 187 163 113
-2.52554 3.92869 18.5802 0.643029 -0.593547 -0.483959 188 166 113
-2.45679 3.92875 18.5425 0.74902 -0.575413 -0.328433 186 164 110
-2.42271 3.92471 18.6323 0.683111 -0.360101 -0.635364 191 167 116
-2.41192 3.93896 18.6238 0.682013 -0.409097 -0.606217 189 166 113
-0.965107 4.07577 20.118 -0.10192 -0.411493 -0.905696 183 161 109
-0.912315 4.0685 20.0948 -0.26468 -0.150921 -0.952453 182 162 108
-0.860953 4.07431 20.1096 -0.279358 0.135856 -0.950527 182 161 108
-0.766758 4.05152 20.1262 -0.485368 -0.184976 -0.854518 176 156 98
-0.718475 4.05657 20.1242 -0.458412 -0.219076 -0.861315 177 157 100
-0.670352 4.04894 20.0602 0.0455936 -0.943141 -0.329251 177 157 103
-0.576835 4.05146 20.1643 0.139091 -0.841415 -0.522182 173 152 94
-0.515026 4.05335 20.1472 -0.00476739 -0.879359 -0.476135 172 151 92
-9.65768 4.32058 16.621 0.781304 0.40116 -0.478157 200 169 112
-9.65332 4.32305 16.5884 0.835299 -0.342661 -0.429953 200 169 112
-10.1466 4.62747 18.0483 -0.33091 0.17431 -0.927424 201 171 116
-10.091 4.6403 18.0699 -0.250374 0.185945 -0.950125 201 171 115
-10.035 4.65068 18.0905 -0.435814 0.020473 -0.899804 196 168 110
-9.97446 4.64927 18.057 -0.489985 0.0605073 -0.869628 201 171 115
-5.51094 4.38512 19.1879 -0.689517 -0.274631 -0.670182 195 166 108
-5.45116 4.42499 19.2558 0.00247197 -0.9456 -0.325322 195 165 109
-5.36958 4.41112 19.3044 0.0103765 -0.943738 -0.330532 194 164 105
-5.31827 4.42239 19.3587 0.00690994 -0.944139 -0.329475 194 164 105
-5.28463 4.38939 19.4205 -0.0603165 -0.784909 -0.616669 188 159 95
-5.23987 4.40367 19.3951 -0.291548 -0.586262 -0.755841 188 159 96
-5.18203 4.38905 19.4705 -0.509953 -0.685525 -0.519618 183 154 89
-5.13054 4.39927 19.3969 -0.387129 -0.799286 -0.459644 182 154 90
-5.11617 4.37297 19.4238 -0.663489 -0.431914 -0.610928 180 153 87
-4.79298 4.17545 18.3809 -0.55466 -0.63608 -0.536428 182 154 89
-4.69276 4.10351 18.1486 -0.543295 0.380587 -0.74832 178 150 86
-2.77209 4.0611 18.7556 0.610567 0.372341 -0.698978 181 154 96
-2.71875 4.05242 18.7703 0.718655 0.168437 -0.674659 181 154 96
-2.64637 4.03747 18.8094 -0.0413204 0.728992 -0.683274 180 155 98
-2.48993 3.94618 18.4361 0.741491 -0.587599 -0.323911 182 158 100
-2.46057 3.95744 18.4674 0.830569 -0.428658 -0.355537 182 158 100
-2.4295 3.98875 18.6619 0.409608 -0.862681 -0.296653 185 162 107
-2.39281 3.98466 18.6598 0.55905 -0.676953 -0.478745 186 162 107
-0.888531 4.11933 20.1067 -0.833515 -0.231649 -0.501588 183 161 114
