ply
format ascii 1.0
element vertex 722
property float x
property float y
property float z
property float nx
property float ny
property float nz
property uchar diffuse_red
property uchar diffuse_green
property uchar diffuse_blue
end_header
0.214864 -0.23356 4.27752 0.625174 0.497125 -0.601685 16 9 12
0.992111 -0.223024 4.08185 -0.946016 -0.0367274 -0.322032 30 29 25
0.993172 -0.225486 4.07242 -0.946447 -0.0436652 -0.319892 30 30 25
-0.602254 -0.1902 3.75345 -0.592916 0.185592 -0.783586 76 75 76
-0.53053 -0.188582 3.69914 -0.580235 0.404893 -0.706675 17 17 18
-0.515607 -0.175367 3.6095 -0.241914 0.664269 -0.707266 15 16 14
-0.535178 -0.181643 3.69078 -0.67066 0.260276 -0.694602 16 17 16
-0.351952 -0.191814 3.87246 0.596575 0.580093 -0.554609 21 20 19
-0.0734612 -0.205257 4.04864 -0.445432 0.616681 -0.649073 19 13 16
-0.0619232 -0.209446 4.05842 -0.332778 0.680396 -0.652932 21 13 16
-0.0399127 -0.212017 4.06937 -0.279414 0.698528 -0.658777 23 11 14
0.00716674 -0.202315 4.11623 0.557288 0.514104 -0.652018 27 14 13
0.0277838 -0.216254 4.10882 0.472265 0.567773 -0.67424 24 12 12
0.0673528 -0.202105 4.17602 -0.0588037 0.759152 -0.648251 23 10 13
0.107639 -0.217574 4.20632 0.70431 -0.207738 -0.678817 21 10 13
0.130894 -0.206079 4.20887 0.508873 0.501297 -0.699821 23 12 14
0.157172 -0.208357 4.23194 0.424018 -0.0752929 -0.902519 21 10 15
0.181486 -0.209932 4.27496 0.844912 0.00794768 -0.534847 21 10 13
0.203312 -0.208826 4.28849 0.78181 -0.25335 -0.569725 19 10 11
0.233639 -0.220144 4.28812 0.789536 -0.259679 -0.556057 17 10 12
0.98717 -0.201731 4.15268 -0.941835 0.0135271 -0.335802 26 26 23
1.00671 -0.203531 4.03141 -0.93078 0.111122 -0.348282 30 29 26
-0.788229 -0.189947 3.95319 0.940228 -0.0598091 -0.335254 56 55 62
-0.757893 -0.176204 3.83647 -0.593138 0.341115 -0.729265 61 60 64
-0.720239 -0.170311 3.793 -0.306326 0.621697 -0.720873 69 68 70
-0.620088 -0.166072 3.77547 -0.644941 0.286303 -0.708578 76 76 76
-0.631911 -0.178245 3.76055 -0.286711 0.640949 -0.712026 77 77 76
-0.575796 -0.175237 3.73095 -0.742868 0.0401871 -0.66823 25 25 26
-0.408269 -0.170144 3.81109 -0.422282 0.580419 -0.69627 19 16 16
-0.40816 -0.169753 3.81182 -0.419992 0.582046 -0.696297 19 16 16
-0.386408 -0.181209 3.89768 -0.412942 0.595544 -0.689062 18 17 18
-0.365165 -0.171924 3.88042 0.139557 0.290062 -0.946778 23 22 21
-0.341307 -0.171974 3.88508 0.221323 0.328002 -0.918385 20 18 18
-0.105135 -0.178147 4.09088 -0.601885 0.479349 -0.638717 17 11 15
-0.0323471 -0.193067 4.12076 -0.25776 0.610325 -0.749041 26 13 15
-0.00360397 -0.190932 4.13207 0.659342 0.483539 -0.575723 34 20 21
0.0278178 -0.187199 4.15027 -0.0663611 0.754975 -0.652387 30 17 16
0.0929044 -0.185482 4.20228 0.498887 0.0106371 -0.866602 31 18 19
0.117385 -0.185539 4.21399 0.385186 0.182252 -0.904663 34 21 22
0.141868 -0.185579 4.22532 0.254442 0.30725 -0.916982 39 27 29
0.167562 -0.185153 4.22277 -0.05841 0.525663 -0.848685 23 11 14
0.186733 -0.186171 4.28187 0.813294 -0.115581 -0.570259 21 9 11
0.98441 -0.178415 4.02563 -0.938264 0.0539443 -0.341688 30 29 31
0.98446 -0.178443 4.02575 -0.938435 0.0540699 -0.341197 30 29 31
1.00898 -0.174479 3.91534 -0.944337 0.0347347 -0.327142 37 34 36
1.00347 -0.179495 3.91928 -0.943645 0.0370436 -0.328879 36 34 36
-0.811319 -0.153269 4.00792 -0.693356 -0.21251 -0.688548 55 54 58
-0.796952 -0.157104 3.9943 -0.386529 -0.47113 -0.792863 60 58 63
-0.74139 -0.151575 3.83973 -0.426303 0.532036 -0.731576 68 67 69
-0.584895 -0.147762 3.74841 -0.654352 0.27492 -0.704445 20 19 22
-0.383196 -0.15109 3.91662 -0.289447 0.66236 -0.691013 24 23 24
-0.354948 -0.152215 3.89758 -0.146697 0.714711 -0.683863 19 20 19
-0.328488 -0.151361 3.8881 -0.109627 0.726083 -0.678812 17 16 16
-0.0780327 -0.163092 4.12766 -0.405069 0.613016 -0.678329 26 13 14
-0.0564521 -0.175308 4.1328 0.611069 -0.189574 -0.768541 26 13 14
-0.0354262 -0.165207 4.12908 0.277916 0.213328 -0.936618 36 22 22
-0.0446087 -0.169846 4.126 -0.165697 0.475021 -0.864234 29 15 15
-0.0112898 -0.165513 4.14398 0.485058 0.0326131 -0.873873 43 31 31
-0.00308044 -0.164604 4.15229 0.57198 -0.0122637 -0.820176 42 30 31
0.0159942 -0.178781 4.16891 0.574127 0.0114085 -0.818686 32 19 20
0.0477357 -0.173512 4.21091 0.840315 -0.168441 -0.515266 26 12 14
0.0815291 -0.163056 4.21154 0.427144 0.642109 -0.636588 35 23 24
0.103846 -0.163474 4.22738 0.0900874 0.559539 -0.823893 38 26 26
0.128278 -0.163328 4.23402 0.236955 0.585633 -0.775169 30 18 18
0.127045 -0.163472 4.2334 0.233115 0.588376 -0.774255 30 18 18
0.153077 -0.163405 4.23888 0.0892976 0.569017 -0.817463 24 12 13
0.982807 -0.163567 4.10983 -0.852778 0.135702 -0.504336 30 28 31
1.01216 -0.159021 4.04291 -0.937425 0.0647771 -0.342107 34 31 33
1.01221 -0.159028 4.0431 -0.93763 0.0645642 -0.341588 34 31 33
1.01229 -0.159014 4.04379 -0.938225 0.0649581 -0.339875 34 31 33
1.01106 -0.15885 4.0384 -0.937752 0.0693784 -0.340305 34 31 33
-0.769394 -0.13503 3.88608 -0.727374 -0.0263761 -0.685734 66 65 67
-0.742309 -0.127134 3.85549 -0.463151 0.0741624 -0.883171 68 67 69
-0.662822 -0.134128 3.78235 -0.415235 0.545377 -0.72811 78 77 80
-0.571796 -0.140486 3.75298 -0.300983 0.631616 -0.714472 16 17 17
-0.416006 -0.141933 3.91128 -0.296748 0.655172 -0.694759 19 16 16
-0.36505 -0.141694 3.90985 -0.202768 0.697536 -0.687262 23 23 22
-0.103922 -0.149983 4.12722 -0.2052 0.718585 -0.664477 22 12 13
-0.0780507 -0.137036 4.14367 -0.0180927 0.502193 -0.864566 36 19 20
-0.0520913 -0.15025 4.14696 0.536176 -0.0958126 -0.838651 30 15 15
-0.0139815 -0.143654 4.16091 0.42816 -0.0414551 -0.902752 44 31 30
0.00850068 -0.144008 4.18193 0.588028 0.0159726 -0.808683 29 17 18
0.0285022 -0.157164 4.18689 0.705187 -0.0115011 -0.708928 28 14 16
0.0483157 -0.142023 4.2176 0.689146 -0.0878149 -0.719282 28 13 14
0.168082 -0.159356 4.25293 0.125466 0.748515 -0.65114 21 10 10
0.997104 -0.153681 4.10736 -0.370856 0.719649 -0.587001 32 29 32
1.01738 -0.138033 4.15105 -0.939185 0.0515294 -0.339523 33 30 33
1.01704 -0.132824 3.96599 -0.948513 -0.105626 -0.298607 37 31 33
-0.77544 -0.118759 3.86587 -0.414003 -0.351825 -0.839536 63 62 65
-0.824736 -0.122081 4.03611 -0.525478 0.426577 -0.736142 55 55 57
-0.729297 -0.10908 3.85429 0.300832 -0.410791 -0.860669 66 66 70
-0.669753 -0.11695 3.80664 -0.383819 0.567286 -0.728608 77 77 81
-0.413475 -0.110128 3.91812 -0.23511 0.677757 -0.696684 20 19 19
-0.380174 -0.120417 3.92765 0.0385258 0.452291 -0.891038 23 24 25
-0.352556 -0.110066 3.99206 0.907223 -0.0133651 -0.420439 16 16 17
-0.152692 -0.11233 4.08636 -0.496833 0.558794 -0.664008 18 12 17
-0.116427 -0.124667 4.14014 -0.09154 0.739752 -0.666624 24 12 14
-0.0530314 -0.129612 4.15248 -0.265457 0.699206 -0.66381 51 34 35
-0.0390376 -0.118237 4.16411 -0.313305 0.680322 -0.662572 44 29 29
0.0711619 -0.124685 4.23938 0.134541 0.524621 -0.840638 39 26 26
0.0814774 -0.131541 4.24022 0.37102 0.517068 -0.771353 42 28 29
0.103709 -0.136421 4.23951 -0.140908 0.646328 -0.749937 37 23 23
0.128435 -0.135488 4.26076 0.276749 0.711179 -0.646246 23 11 12
0.127128 -0.135555 4.25765 0.255747 0.717719 -0.647667 24 12 12
1.01136 -0.121326 4.2182 -0.936475 0.0572791 -0.346025 31 28 33
1.0185 -0.114871 4.05602 -0.421186 -0.241038 -0.874359 35 30 31
1.0186 -0.114287 4.05918 -0.423954 -0.2216 -0.878155 35 30 31
1.03452 -0.110524 3.96254 -0.948337 -0.1296 -0.289588 37 32 33
-0.773806 -0.0995645 3.84567 -0.219055 -0.763353 -0.607706 62 62 66
-0.710265 -0.103014 3.84354 -0.322412 0.147254 -0.935076 72 72 76
-0.673506 -0.102952 3.81811 -0.496835 0.431631 -0.752894 78 79 82
-0.613664 -0.089081 3.81849 0.168036 0.465771 -0.868805 17 17 18
-0.501403 -0.0873172 3.89298 0.726056 0.375741 -0.575901 16 16 18
-0.501403 -0.0873172 3.89298 0.726056 0.375741 -0.575901 16 16 18
-0.401857 -0.0894532 3.92996 0.0781114 0.317054 -0.945185 24 24 24
-0.369931 -0.0870144 3.89315 -0.419286 -0.611732 -0.670809 16 17 18
-0.18423 -0.103917 4.02248 -0.175292 0.712876 -0.67903 15 14 21
-0.106829 -0.113392 4.17398 -0.344264 0.661379 -0.666379 27 13 13
-0.0780177 -0.10634 4.17571 -0.125927 0.733112 -0.668349 40 22 23
-0.0544335 -0.106213 4.17733 0.0331938 0.74748 -0.663454 45 29 30
-0.0138995 -0.112832 4.1799 -0.0682018 0.744127 -0.664548 37 22 22
-0.0265877 -0.106815 4.18695 0.179294 0.735217 -0.653689 39 25 25
0.0142025 -0.102748 4.22608 0.0769108 0.747198 -0.660136 29 12 13
0.0525095 -0.111952 4.24417 0.679236 -0.151387 -0.718137 39 23 24
0.250608 -0.0846379 3.79354 -0.809505 -0.367799 -0.457631 21 15 17
0.955219 -0.102997 4.18081 0.681693 0.231394 -0.694083 28 25 27
1.00254 -0.100425 4.0925 -0.87501 -0.0145494 -0.483886 32 27 30
1.00837 -0.0977083 4.08045 -0.888862 -0.107838 -0.445304 32 28 31
1.01135 -0.0938364 4.07058 -0.802363 -0.0617166 -0.593637 32 28 29
1.02921 -0.104006 4.05747 -0.836717 -0.291634 -0.463524 34 30 30
1.04049 -0.102445 3.96623 -0.949773 -0.113333 -0.291697 38 33 34
-0.790653 -0.077239 3.89767 -0.567951 0.359549 -0.740376 62 63 68
-0.761748 -0.0776802 3.88077 -0.179217 0.671635 -0.71888 64 64 68
-0.737785 -0.0683176 3.85849 -0.113497 0.549836 -0.827526 68 69 70
-0.723109 -0.079952 3.8574 -0.396679 0.547758 -0.736619 71 72 72
-0.696626 -0.0798571 3.84393 -0.557475 0.390539 -0.732599 78 78 81
-0.68267 -0.0705571 3.84964 -0.4675 0.490738 -0.735269 77 78 81
-0.64861 -0.0713869 3.8214 -0.706238 0.1265 -0.696581 42 43 44
-0.627768 -0.0674658 3.81634 -0.0491957 0.415386 -0.908314 18 19 18
-0.609315 -0.0684389 3.87758 -0.259312 0.644582 -0.719216 15 16 16
-0.532912 -0.0775496 3.89843 -0.595215 0.381413 -0.707279 17 16 18
-0.41529 -0.0673551 3.94505 -0.0865988 0.410668 -0.907663 24 24 21
-0.387483 -0.0673819 3.94397 0.114863 0.276637 -0.954085 17 16 15
-0.27198 -0.074546 4.04368 0.764964 0.379921 -0.520086 19 18 28
-0.242947 -0.0746476 4.08335 0.764424 0.180223 -0.619012 17 15 29
-0.154033 -0.0800802 4.15117 -0.389577 0.628053 -0.673631 22 14 18
-0.120147 -0.089301 4.19732 -0.50645 0.254158 -0.823961 26 12 14
-0.0903179 -0.0852673 4.19659 -0.126006 0.186211 -0.974396 30 13 15
-0.0653991 -0.0853701 4.19847 0.428585 -0.0782218 -0.900109 38 22 24
-0.0427857 -0.0852425 4.20284 0.195368 0.52402 -0.828996 35 20 21
-0.0442303 -0.0837861 4.20563 0.159911 0.492198 -0.855669 35 20 20
-0.0139966 -0.0840656 4.22551 0.0639327 0.687205 -0.723645 27 11 12
0.0370967 -0.0930361 4.25269 0.671011 -0.184956 -0.718008 41 27 27
0.05965 -0.0819308 4.27202 0.805319 -0.293147 -0.515292 33 21 19
0.289129 -0.0670063 3.86079 0.0570247 -0.852182 -0.520129 28 21 24
0.467183 -0.084021 4.29019 0.441798 -0.697889 -0.563706 16 12 15
0.463151 -0.0860879 4.29863 0.203292 -0.816317 -0.540646 15 11 14
0.490917 -0.0838916 4.29417 0.42021 -0.710721 -0.56418 15 11 14
0.525919 -0.091987 4.3014 0.692976 0.334772 -0.638523 12 11 14
0.549934 -0.0791271 4.32202 0.648275 0.394478 -0.65125 11 12 13
0.558921 -0.0769096 4.32507 0.608465 -0.527265 -0.593095 12 13 14
0.890169 -0.0870161 4.13265 0.301514 0.640356 -0.706423 22 19 23
0.918143 -0.0897097 4.13692 0.506299 0.291355 -0.811649 24 22 22
0.93094 -0.0879289 4.15729 0.7332 0.0959811 -0.673205 25 22 23
1.00833 -0.0761772 4.03857 -0.729938 -0.430544 -0.530869 32 29 27
1.03064 -0.0825687 4.02185 -0.945132 -0.152832 -0.288735 34 30 29
1.44861 -0.0735263 4.21281 -0.970149 -0.10039 -0.220753 53 53 54
-0.768104 -0.0623938 3.84914 -0.522827 0.415776 -0.744166 66 67 72
-0.643457 -0.0457006 3.84082 0.00382877 0.66974 -0.742586 19 19 19
-0.569684 -0.0640985 3.90941 -0.182675 0.680826 -0.7093 15 16 19
-0.548699 -0.0547605 3.89386 0.81116 0.229801 -0.537783 18 18 17
-0.495995 -0.0552769 3.87693 -0.283994 0.602898 -0.745561 17 17 20
-0.49309 -0.06253 3.9152 0.695725 0.37902 -0.610173 16 15 19
-0.458138 -0.0533383 4.00251 -0.525365 0.478122 -0.703841 20 19 21
-0.312147 -0.0651852 4.07062 -0.384175 0.611323 -0.691877 17 17 19
-0.27451 -0.0633651 4.05654 -0.198285 0.653152 -0.730805 19 19 27
-0.263316 -0.0621271 4.07383 0.428732 -0.00257136 -0.903428 19 19 28
-0.218569 -0.0510517 4.1086 0.679752 0.473426 -0.560183 20 22 29
-0.195566 -0.0666312 4.12272 0.698595 0.26543 -0.664464 17 17 22
-0.129708 -0.062981 4.20168 -0.442233 0.323963 -0.836348 27 14 15
-0.102 -0.0632288 4.20353 -0.263887 0.119639 -0.957105 27 12 15
-0.07742 -0.0633382 4.20409 0.242563 0.651249 -0.719054 27 13 14
-0.04418 -0.0542986 4.22828 0.648454 0.484867 -0.586866 26 11 12
0.0209425 -0.0714707 4.27067 0.164489 0.733533 -0.659449 34 20 20
0.0488717 -0.0545837 4.26875 0.662956 -0.178306 -0.727115 29 18 18
0.257252 -0.0654319 3.86454 -0.3989 -0.769337 -0.498999 23 17 20
0.264429 -0.0619459 3.88012 -0.288272 -0.81964 -0.495066 25 19 21
0.348013 -0.063868 3.95078 0.314473 -0.779773 -0.541351 30 24 27
0.445561 -0.0616676 4.25668 0.394113 0.0961951 -0.914014 25 21 23
0.454846 -0.0611775 4.2595 0.397477 0.00166218 -0.917611 26 21 23
0.47972 -0.0612421 4.27472 0.389797 -0.223337 -0.893408 26 21 23
0.505009 -0.0613506 4.29308 0.391892 -0.219965 -0.893328 23 19 22
0.531557 -0.0615788 4.32014 0.574221 -0.0630803 -0.816267 20 18 19
0.608216 -0.0607405 4.31673 -0.789904 0.348372 -0.504667 15 14 17
0.986659 -0.0544575 4.04627 -0.945525 -0.0980173 -0.310443 30 29 26
1.01247 -0.055067 4.01381 -0.775343 -0.129757 -0.618066 33 30 28
1.02604 -0.066531 3.97801 -0.949723 -0.0811717 -0.302386 33 30 29
1.47347 -0.0569899 4.20205 -0.822469 -0.200708 -0.532222 52 50 50
-0.766734 -0.0373159 3.85752 -0.223764 0.643411 -0.732087 70 71 76
-0.735009 -0.0401167 3.86273 -0.429334 0.476166 -0.767423 73 76 77
-0.705296 -0.0404442 3.87497 -0.407469 0.480873 -0.776357 78 78 79
-0.695827 -0.0411474 3.88285 -0.727467 0.0301672 -0.68548 76 76 78
-0.670918 -0.0428032 3.85257 -0.496817 0.459539 -0.736205 55 54 56
-0.643818 -0.0444453 3.83374 -0.315893 0.440267 -0.840462 19 19 19
-0.574459 -0.0284262 3.91537 0.843124 0.0911469 -0.529938 15 16 16
-0.560102 -0.0346117 3.91401 0.885093 0.210553 -0.415064 17 17 16
-0.527166 -0.0282175 3.91131 -0.621401 0.33965 -0.706044 24 24 22
-0.482596 -0.0285981 3.94585 0.917697 0.0145746 -0.397013 17 17 16
-0.471449 -0.0341218 3.95334 0.29331 0.709655 -0.640593 18 18 18
-0.413873 -0.0369023 3.9636 -0.0222741 0.723673 -0.689784 17 17 14
-0.312161 -0.0313309 4.10059 -0.376351 0.612111 -0.695472 23 26 26
-0.279127 -0.0288612 4.09606 -0.529636 0.502341 -0.683476 23 31 28
-0.242517 -0.0440425 4.10362 0.318598 -0.0772803 -0.944734 23 23 30
-0.221044 -0.0355085 4.11085 0.0777472 0.0634869 -0.99495 22 24 27
-0.217787 -0.0339154 4.12628 0.729398 0.414565 -0.544164 22 24 27
-0.217168 -0.0338257 4.11502 0.207514 0.165588 -0.964115 21 24 26
-0.182944 -0.0431783 4.14426 0.855785 -0.0998896 -0.507597 22 19 21
-0.112059 -0.0370714 4.22314 -0.509926 0.547656 -0.663361 37 23 24
-0.0890793 -0.041233 4.20919 -0.0801101 0.728866 -0.679953 34 20 21
-0.0566445 -0.0354108 4.23556 0.588166 0.539663 -0.602349 28 14 15
0.00142347 -0.0313187 4.28592 -0.204781 0.432892 -0.877878 42 28 31
0.0343548 -0.0349553 4.29908 0.646457 -0.159944 -0.745997 35 25 25
0.093157 -0.0324026 4.34992 0.221622 0.716391 -0.661565 20 9 12
0.152217 -0.0303615 4.34342 -0.754036 0.312035 -0.577983 17 10 12
0.171344 -0.0406941 4.32142 -0.756048 0.313476 -0.574565 15 9 11
0.165279 -0.0469294 4.32336 -0.762888 0.300913 -0.572235 17 10 12
0.195898 -0.0408102 4.32238 -0.647274 0.348985 -0.677676 12 8 10
0.209418 -0.0451237 3.95135 -0.845557 -0.269757 -0.460722 23 18 19
0.229922 -0.0270981 3.93627 -0.817318 0.039065 -0.574861 31 25 25
0.231408 -0.0272438 3.9256 -0.793628 0.0432144 -0.606867 31 25 25
0.354946 -0.0372063 4.1838 0.177107 -0.833335 -0.523628 32 25 27
0.346838 -0.0409865 4.18379 0.237698 -0.81485 -0.528696 31 25 27
0.386449 -0.0433372 3.98728 0.588429 -0.579164 -0.564199 36 29 29
0.374311 -0.0449134 3.9978 0.47775 -0.682335 -0.55333 35 29 29
0.472435 -0.0390079 4.29107 0.335853 -0.0708198 -0.939248 32 26 26
0.470192 -0.0382406 4.29348 0.302476 -0.0633637 -0.951049 32 26 25
0.496308 -0.0389556 4.29585 0.487509 0.0285558 -0.872651 33 26 27
0.521421 -0.03883 4.31119 0.557055 -0.00289035 -0.83047 31 27 26
0.55441 -0.0485152 4.33077 0.631575 -0.402955 -0.662375 23 22 23
0.582391 -0.0438972 4.34245 0.623872 -0.510305 -0.591923 22 19 22
0.599819 -0.034296 4.34586 -0.839107 0.25061 -0.482799 24 19 22
0.99754 -0.0387963 4.06981 -0.108609 0.736591 -0.667562 30 28 23
1.24025 -0.0379204 4.36409 0.0204045 -0.84618 -0.532506 41 40 39
1.26116 -0.0367027 4.34564 -0.957626 -0.000297881 -0.288014 45 43 44
1.39976 -0.0365081 4.25481 -0.931058 -0.288091 -0.223909 55 55 54
1.43504 -0.0316251 4.23906 0.133874 0.6796 -0.721264 56 56 59
1.4526 -0.0443313 4.23496 -0.79188 -0.0960736 -0.603072 56 55 58
1.46488 -0.0491225 4.20018 -0.362269 -0.044517 -0.93101 54 53 53
1.48763 -0.0376893 4.19009 0.18824 0.649668 -0.736544 55 52 52
1.51612 -0.0485076 4.17437 -0.0486514 0.730832 -0.680821 56 56 55
-0.715002 -0.0103213 3.89785 -0.395734 0.537234 -0.744831 78 78 79
-0.678023 -0.0102962 3.86893 -0.455292 0.485508 -0.746318 32 31 33
-0.638693 -0.0102565 3.8301 -0.352155 0.576177 -0.737569 16 16 16
-0.636627 -0.01692 3.82618 -0.185591 0.663132 -0.725129 16 16 16
-0.587984 -0.00632178 3.89641 0.89854 -0.0924901 -0.429035 13 14 14
-0.555312 -0.0167983 3.91069 0.782096 0.297597 -0.547506 22 22 20
-0.496289 -0.0220079 3.90706 -0.343383 0.602939 -0.720105 16 15 15
-0.464221 -0.00691629 3.94928 0.919371 0.00229274 -0.393385 20 20 18
-0.414146 -0.00766364 3.98588 -0.219924 0.545182 -0.808956 16 17 15
-0.380964 -0.0150476 3.97766 -0.411815 0.574209 -0.707596 16 15 18
-0.325121 -0.00875141 4.12559 -0.577974 0.445283 -0.683863 24 28 24
-0.207681 -0.0062937 4.17127 0.882092 -0.121791 -0.455061 22 20 19
-0.166971 -0.0177034 4.20451 -0.386933 0.621241 -0.681427 27 13 16
-0.13142 -0.0245256 4.21419 -0.384257 0.627124 -0.677541 31 18 19
-0.110624 -0.0110934 4.22949 -0.298038 0.668471 -0.68141 47 33 36
-0.0728712 -0.0193522 4.23001 0.260709 0.707478 -0.656891 35 20 21
0.0572897 -0.0251379 4.34682 0.793453 -0.0475045 -0.606775 23 13 13
0.0782381 -0.00722913 4.3572 0.492439 0.17895 -0.851751 20 10 11
0.18349 -0.0175931 4.3186 -0.436784 0.00211851 -0.899564 18 12 13
0.214118 -0.00719175 4.00757 -0.756566 0.309812 -0.575869 33 25 26
0.31971 -0.0108534 4.04367 0.276634 -0.674542 -0.684447 40 29 33
0.352547 -0.0138394 4.11805 0.513933 -0.661025 -0.546734 39 30 31
0.372009 -0.0119028 4.12169 0.296939 -0.6035 -0.74001 40 31 31
0.38818 -0.0196862 4.12478 0.2187 -0.814076 -0.538007 39 31 31
0.402645 -0.0147134 4.12585 0.350426 -0.734927 -0.58059 40 31 31
0.437914 -0.0114239 4.17513 0.0849696 -0.853822 -0.513583 38 30 27
0.575639 -0.0150875 4.33003 0.592867 -0.554735 -0.583762 33 30 31
0.846532 -0.010388 4.43343 0.622151 0.367897 -0.691071 19 16 21
0.884934 -0.0144534 4.39181 -0.790527 0.388827 -0.473161 20 16 19
0.915502 -0.0123488 4.36993 -0.741417 0.456802 -0.491562 19 17 18
1.00759 -0.00853871 4.14569 -0.210393 0.731371 -0.648715 28 27 22
1.02989 -0.0126348 4.13021 0.0879818 0.705314 -0.703414 30 27 25
1.04928 -0.0176062 4.13313 0.00960687 0.723257 -0.690512 32 29 29
1.23982 -0.025252 4.36549 -0.919034 -0.03635 -0.392498 40 39 38
1.23509 -0.0207745 4.33569 -0.790245 -0.00757792 -0.612744 40 39 38
1.27689 -0.021426 4.32095 0.0328482 -0.844306 -0.534853 46 44 41
1.4154 -0.0116537 4.25744 -0.946967 -0.131868 -0.293025 53 53 54
1.46608 -0.0237603 4.20192 -0.875863 -0.193703 -0.441977 58 56 56
1.50484 -0.0262921 4.18245 -0.288443 0.216609 -0.932674 56 55 54
1.52858 -0.0262695 4.17095 -0.799247 -0.307116 -0.516608 56 55 55
1.54527 -0.007149 4.17384 -0.970228 -0.152602 -0.188072 55 55 54
-0.733733 -0.00231297 3.90211 -0.305387 0.599036 -0.740199 77 77 79
-0.688657 -0.00198167 3.88175 -0.512913 0.434835 -0.740161 45 43 45
-0.572812 0.0111108 3.92724 0.882625 0.215057 -0.417999 21 21 18
-0.519408 0.00777741 3.93236 0.0483459 0.721578 -0.690643 16 15 13
-0.485677 0.0146949 3.96969 0.0898873 0.723875 -0.684051 18 19 17
-0.482598 0.0145969 3.945 0.877421 -0.0470044 -0.477413 19 19 17
-0.441838 0.00319133 3.9826 0.399906 0.165274 -0.901532 18 16 16
-0.359223 0.0123876 4.12905 -0.291225 0.647333 -0.704378 18 20 17
-0.350262 0.00980182 4.11917 -0.152574 0.649997 -0.744463 20 22 18
-0.318416 -0.00207284 4.14214 -0.356134 0.62032 -0.698836 26 32 26
-0.286743 0.00519096 4.11659 -0.593787 0.432229 -0.678672 21 27 22
-0.226757 -0.00165667 4.09395 -0.669584 0.347196 -0.656592 18 19 15
-0.185058 0.0103947 4.20333 0.857825 -0.228522 -0.460342 26 14 17
-0.131736 0.00988792 4.25473 -0.388773 0.620992 -0.680605 35 22 25
-0.0918214 -0.00169301 4.23425 -0.07146 0.72776 -0.682099 37 21 24
-0.0581774 0.00562732 4.2755 0.838749 0.0185512 -0.544203 26 11 14
-0.0290189 0.0123252 4.31431 -0.195182 0.649214 -0.735136 41 27 29
0.00144989 0.00165474 4.30425 -0.257182 0.690793 -0.675768 38 27 29
0.0173977 -0.00562258 4.31106 0.446801 0.048455 -0.89332 34 24 25
0.0418439 -0.00563102 4.32869 0.366962 0.0716626 -0.927471 26 17 17
0.0664566 -0.00564554 4.35212 0.664355 0.0482561 -0.745857 20 10 11
0.138921 0.00103087 4.3632 -0.747219 0.317365 -0.583903 18 13 14
0.135794 -0.00203339 3.95432 -0.743065 0.311334 -0.59239 31 24 25
0.188846 0.00775804 4.29878 -0.533161 -0.698952 -0.47666 30 24 23
0.188846 0.00775804 4.29878 -0.533161 -0.698952 -0.47666 30 24 23
0.196904 0.000591986 4.30621 -0.401283 -0.778479 -0.482641 28 22 22
0.19698 0.00647752 4.30911 -0.383526 -0.0740838 -0.920554 29 23 23
0.214734 0.00872713 4.20015 -0.46228 -0.748032 -0.476177 32 24 23
0.233019 0.0111045 3.95875 -0.85925 0.0481493 -0.509284 38 30 29
0.246436 -0.00389621 3.91454 -0.865485 0.0162476 -0.500671 39 29 29
0.378776 0.0118855 4.17886 0.709462 -0.423173 -0.563549 42 30 31
0.393777 0.00362484 4.14989 0.0364308 -0.801491 -0.596897 41 30 31
0.438794 0.00719191 4.15479 0.338225 -0.773378 -0.536182 40 30 29
0.913897 0.0169856 4.41278 -0.607243 0.477592 -0.634951 22 17 21
0.956494 0.00127012 4.32517 -0.913311 -0.262393 -0.31147 23 19 21
0.976348 0.00319099 4.25295 -0.907917 -0.286681 -0.30578 23 20 19
0.989134 -0.00493142 4.18236 -0.743145 0.463004 -0.483076 25 24 19
1.01617 0.00380551 4.1707 -0.483899 0.657586 -0.577427 28 26 23
1.05753 0.0106106 4.18348 -0.316346 0.660923 -0.680519 30 28 27
1.20738 -0.00516492 4.33458 -0.952108 0.0149094 -0.305397 38 36 35
1.20674 -0.00516273 4.33227 -0.943527 0.0806736 -0.321323 38 36 35
1.21711 0.0156171 4.2907 -0.842015 0.129131 -0.52377 42 40 38
1.21283 0.0106712 4.25812 -0.949908 0.0498903 -0.308522 42 40 38
1.43804 0.0113395 4.2658 -0.875365 -0.24085 -0.419198 54 53 55
1.4544 -0.00230844 4.2359 -0.940504 0.033167 -0.338159 56 55 55
1.4528 -0.00172319 4.23978 -0.904415 0.0619617 -0.422132 56 55 55
1.47731 -0.00433856 4.1817 -0.960007 -0.202421 -0.193424 57 54 53
1.51723 -0.00159532 4.1882 -0.971979 -0.122228 -0.200792 55 54 55
1.52532 0.00225961 4.19221 -0.960036 -0.151586 -0.23527 54 54 54
1.51862 -0.00408203 4.18264 -0.306745 0.0947237 -0.947066 56 55 55
-0.732479 0.0283247 3.91205 0.0389829 0.596747 -0.801482 77 77 78
-0.680467 0.0294699 3.8942 -0.400877 0.533855 -0.744511 18 18 19
-0.662965 0.0321172 3.89098 -0.449076 0.495824 -0.743297 17 17 17
-0.662965 0.0321172 3.89098 -0.449076 0.495824 -0.743297 17 17 17
-0.654159 0.0222333 3.89528 -0.304548 0.602477 -0.737748 16 16 17
-0.60392 0.0190185 3.88982 0.791909 -0.236888 -0.562818 15 15 15
-0.555882 0.0191642 3.94124 -0.0796942 0.699376 -0.710297 26 25 24
-0.501443 0.033968 3.95391 0.906832 -0.0959746 -0.410421 17 17 17
-0.440354 0.0199398 3.97237 -0.301593 0.608381 -0.734108 18 16 17
-0.388281 0.0196363 4.08077 -0.40416 0.578277 -0.708696 17 16 16
-0.318713 0.0377816 4.18109 0.436715 0.00897112 -0.899555 23 29 22
-0.280949 0.0360147 4.15829 -0.638215 0.377091 -0.671181 19 23 18
-0.229973 0.0346419 4.17795 -0.495515 0.532397 -0.686308 19 15 13
-0.215071 0.0367425 4.1944 -0.189941 0.692349 -0.696114 23 15 15
-0.174579 0.0265505 4.23482 0.561883 -0.213816 -0.799106 29 15 18
-0.150728 0.0266365 4.25711 -0.0802442 -0.145978 -0.986028 38 24 27
-0.127536 0.0333903 4.27199 -0.41166 0.605482 -0.681123 41 28 31
-0.0923279 0.0309679 4.28928 -0.160526 0.709166 -0.686524 30 15 17
-0.0724082 0.0281205 4.29445 0.205315 0.30702 -0.929293 27 12 14
-0.046958 0.0281753 4.30938 0.254151 0.197089 -0.94687 35 21 23
0.00143565 0.0317229 4.33308 -0.242933 0.547141 -0.801012 33 23 23
0.034461 0.0349367 4.36706 0.235314 0.706201 -0.667763 27 16 18
0.0537907 0.0171983 4.36722 -0.00920484 0.735523 -0.677437 24 15 16
0.0939225 0.0191082 4.38314 -0.760414 0.282084 -0.584977 20 13 13
0.0939186 0.0191073 4.38294 -0.749521 0.301709 -0.589228 20 13 13
0.12677 0.0329333 4.39305 -0.720847 0.343488 -0.601993 24 16 19
0.125432 0.0338701 4.3947 -0.697558 0.35667 -0.621449 24 16 19
0.125357 0.0338476 4.39187 -0.346801 0.613086 -0.709828 24 16 19
0.133326 0.0236519 4.38827 -0.776795 0.25984 -0.573649 21 14 17
0.126445 0.0281698 4.03196 -0.711158 0.356324 -0.606042 36 27 28
0.133326 0.0236519 4.38827 -0.776795 0.25984 -0.573649 21 14 17
0.21042 0.0315638 4.07602 -0.751835 -0.427452 -0.502025 41 31 31
0.228094 0.0161592 3.97608 -0.874378 -0.0816995 -0.478318 38 31 29
0.263423 0.0272861 3.92049 -0.832901 -0.329339 -0.444761 46 35 35
0.697846 0.0344051 4.16618 0.396828 0.584305 -0.707895 28 24 24
0.865001 0.038127 4.6005 0.718692 0.193057 -0.66799 19 16 17
0.881423 0.0307253 4.47287 -0.926586 0.0180819 -0.375647 18 16 18
0.881357 0.0307229 4.47253 -0.92697 0.0174007 -0.374733 18 16 18
0.881357 0.0307229 4.47253 -0.92697 0.0174007 -0.374733 18 16 18
0.941732 0.0190722 4.37717 -0.901161 -0.205178 -0.381851 24 22 23
0.982425 0.021855 4.23524 -0.888929 0.218077 -0.4028 25 22 19
1.07384 0.0317995 4.18683 -0.892722 0.229417 -0.387834 34 32 31
1.21216 0.0363486 4.34856 -0.936403 0.116925 -0.330875 41 37 37
1.21469 0.0231724 4.26865 -0.950713 0.0437649 -0.306968 43 41 39
1.22326 0.0273195 4.27697 -0.942943 0.0945956 -0.319235 44 42 40
1.22273 0.027307 4.2751 -0.9411 0.103609 -0.321865 44 42 40
1.41615 0.0312114 4.27779 -0.894119 -0.304059 -0.328784 54 53 50
1.46551 0.0322551 4.29626 -0.960278 -0.189739 -0.20461 57 55 56
1.48457 0.0185005 4.25087 -0.935123 0.130574 -0.329386 56 54 53
1.51191 0.0229331 4.22734 -0.973012 -0.0965819 -0.20957 55 52 52
1.52981 0.0233357 4.16753 -0.726998 -0.615644 -0.304066 54 54 54
1.53224 0.0258178 4.15836 -0.807991 -0.506786 -0.30053 54 54 55
1.54964 0.0177114 4.13416 -0.974163 -0.1214 -0.190444 54 53 53
-0.628973 0.0463834 3.8954 0.0974361 0.615906 -0.781771 14 16 17
-0.588309 0.0360586 3.91884 0.700075 -0.0238933 -0.713669 19 18 17
-0.572567 0.0423237 3.95139 0.920527 -0.129786 -0.368491 25 23 23
-0.550535 0.0463011 3.95139 0.643356 -0.185834 -0.74267 17 17 17
-0.465818 0.0539699 4.02769 0.387212 0.671366 -0.631929 18 19 18
-0.441457 0.0554938 4.00903 -0.428503 0.545875 -0.720004 16 16 17
-0.389414 0.0528309 4.12376 -0.209838 0.672033 -0.710169 18 17 15
-0.354812 0.042443 4.14794 -0.416214 0.537139 -0.733653 25 29 24
-0.331291 0.050211 4.1512 -0.648619 0.350085 -0.675821 25 30 22
-0.285517 0.0510738 4.15603 -0.476931 0.536746 -0.696018 19 24 18
-0.261126 0.040763 4.16361 -0.566388 0.462629 -0.68204 17 18 13
-0.187665 0.045821 4.23154 0.652118 -0.0683516 -0.75503 29 14 18
-0.163858 0.0489902 4.25265 0.346851 0.129953 -0.928874 35 22 25
-0.139549 0.0490235 4.2646 0.419683 -0.402528 -0.813534 40 26 29
-0.0573542 0.0553318 4.32319 -0.314383 0.617627 -0.720903 35 21 23
-0.0244963 0.0555692 4.32705 -0.346827 0.486265 -0.802034 36 25 23
0.144835 0.051959 4.12387 -0.860583 -0.0308773 -0.508374 47 37 39
0.164834 0.0514505 4.12408 -0.848438 -0.25272 -0.465065 51 40 44
0.199059 0.053664 4.08409 -0.7385 -0.324027 -0.59129 54 43 44
0.221896 0.0451047 4.06151 -0.689279 -0.263272 -0.674968 47 36 36
0.23875 0.0363341 3.95089 -0.758866 -0.468587 -0.45227 48 38 37
0.70423 0.0424013 4.17849 0.566603 0.439255 -0.697148 28 23 24
0.718328 0.0410062 4.10589 0.453364 0.537879 -0.710737 22 16 18
0.877203 0.0601566 4.52839 -0.904316 0.0604558 -0.422561 18 15 16
0.907473 0.0493891 4.43924 -0.898851 0.0918971 -0.428511 30 23 28
0.907473 0.0493891 4.43924 -0.898851 0.0918971 -0.428511 30 23 28
0.928513 0.0570628 4.35249 -0.914082 0.115473 -0.388742 34 30 29
0.947714 0.0462274 4.34402 -0.899055 -0.305324 -0.31381 34 32 30
0.96323 0.0411394 4.30934 -0.77718 -0.53238 -0.335505 31 27 27
0.971493 0.04055 4.29818 -0.85973 -0.401399 -0.315821 29 24 24
1.05613 0.0451834 4.21742 -0.857487 -0.246617 -0.451548 35 31 31
1.23719 0.0491123 4.22728 -0.946111 0.0842918 -0.312681 47 45 45
1.23456 0.0449886 4.23869 -0.936926 0.126732 -0.325743 46 44 44
1.37852 0.0604653 4.25016 -0.958406 -0.121593 -0.258211 51 50 48
1.40304 0.0391626 4.24601 -0.948191 -0.236104 -0.212575 53 52 48
1.52128 0.0465736 4.20037 -0.973745 -0.00689276 -0.227536 55 52 52
-0.769403 0.0738907 3.97735 -0.631981 0.24722 -0.734494 77 79 80
-0.732333 0.0565445 3.9323 -0.235694 0.416693 -0.877961 67 67 68
-0.69832 0.0563327 3.90946 -0.616706 0.19461 -0.762759 17 17 20
-0.608824 0.0607532 3.91404 0.703465 -0.330367 -0.629281 16 17 19
-0.58965 0.0663637 3.93124 0.571758 -0.249646 -0.781518 23 23 24
-0.564394 0.0698137 3.96428 0.869033 0.238519 -0.433463 18 17 15
-0.496865 0.0632929 4.01948 0.170623 0.716089 -0.676834 22 23 23
-0.390324 0.0798974 4.16358 -0.428011 0.556759 -0.711917 18 21 19
-0.355745 0.0771292 4.18388 -0.294605 0.638383 -0.711108 24 30 23
-0.294827 0.0749061 4.18276 -0.274404 0.651779 -0.707027 18 23 17
-0.195114 0.0638956 4.23984 -0.294867 0.494773 -0.817467 35 18 22
-0.156332 0.0774625 4.26335 0.300027 0.444683 -0.843943 38 25 28
-0.124092 0.0672214 4.27201 0.727121 0.391723 -0.563781 35 21 26
-0.103894 0.0833173 4.30149 0.752617 -0.0428141 -0.657064 26 13 16
-0.0925199 0.0638047 4.32549 -0.449226 0.583045 -0.676945 25 11 14
-0.0150909 0.0755891 4.34968 0.609112 -0.0771789 -0.78932 27 17 14
0.0116118 0.0837564 4.39752 -0.385033 0.606477 -0.695655 20 10 9
0.107416 0.0614542 4.21693 -0.751135 0.291369 -0.592368 33 22 25
0.137263 0.0740616 4.16422 -0.738423 0.315426 -0.596018 52 41 44
0.140251 0.0650553 4.14891 -0.771883 0.24774 -0.58551 50 39 43
0.132485 0.0741898 4.17554 -0.843031 0.0346411 -0.536748 49 38 41
0.209347 0.0766836 4.08425 -0.586451 -0.405117 -0.701396 65 53 53
0.361549 0.0689231 4.09876 0.676748 -0.487118 -0.552021 46 33 33
0.743776 0.0790159 4.25186 0.519613 0.480096 -0.70676 22 15 17
0.853712 0.0839906 4.5232 -0.884275 0.185889 -0.428373 21 14 17
0.862429 0.0754648 4.30811 -0.8626 0.247525 -0.441195 28 21 26
0.893626 0.0713049 4.46501 -0.922678 0.052055 -0.382041 26 19 24
0.867265 0.0827866 4.30444 -0.877752 0.21173 -0.429792 29 23 27
0.934666 0.0635585 4.31046 -0.460526 -0.792069 -0.400677 35 31 29
0.941792 0.0797152 4.28434 -0.443906 -0.489516 -0.750548 39 34 31
0.968556 0.0627692 4.30064 -0.412802 -0.762364 -0.498394 37 32 31
0.983877 0.0655541 4.2846 -0.535346 -0.718789 -0.443562 38 33 31
1.01412 0.0650879 4.24259 -0.563626 -0.0110856 -0.825956 37 34 29
1.03818 0.0651826 4.23614 -0.506032 -0.396425 -0.766015 36 33 31
1.07345 0.0671223 4.17228 -0.946316 -0.151803 -0.285382 36 31 29
1.25559 0.0765637 4.36667 -0.935021 0.131275 -0.329398 44 43 44
1.24844 0.0722369 4.36259 -0.932917 0.138288 -0.33248 43 42 43
1.25187 0.072013 4.32016 -0.947794 0.0711584 -0.310843 46 45 45
1.41368 0.0645607 4.221 -0.954437 -0.21553 -0.20639 56 52 48
-0.8015 0.0912308 3.99146 -0.161328 0.654403 -0.738735 72 74 75
-0.747568 0.0824264 3.96133 -0.322768 0.576338 -0.75077 67 70 72
-0.720755 0.0836376 3.94978 -0.526808 0.404918 -0.747339 17 19 23
-0.695744 0.0956202 3.96234 -0.335047 0.571869 -0.748805 15 16 19
-0.60282 0.088306 3.93402 -0.290455 0.594614 -0.749713 20 22 22
-0.591354 0.0941329 3.95736 0.000726398 0.556221 -0.831034 20 21 20
-0.576333 0.082493 3.94449 0.56587 0.0264746 -0.824069 20 21 20
-0.551426 0.0948842 4.05836 -0.0845752 0.408212 -0.908961 14 14 13
-0.536367 0.0989736 4.08348 0.366361 0.220393 -0.903995 18 17 18
-0.46505 0.0798359 4.0556 0.592633 -0.0944369 -0.799917 15 16 15
-0.428472 0.0879915 4.21383 -0.450895 0.537036 -0.712942 16 16 19
-0.255322 0.0842571 4.18994 -0.511602 0.509124 -0.692139 20 15 14
-0.233858 0.0847787 4.22685 0.531675 0.0359904 -0.846184 24 14 15
-0.174117 0.0911902 4.27019 -0.283047 0.584466 -0.76045 41 28 31
-0.0565552 0.0922047 4.3561 0.0189734 0.68426 -0.728991 38 27 27
0.0147175 0.0963133 4.38741 -0.533767 0.514016 -0.671477 19 10 10
0.0464872 0.101531 4.40478 -0.595286 0.358261 -0.719225 23 16 18
0.0465585 0.101725 4.4131 -0.709708 0.335189 -0.619647 23 16 18
0.0487923 0.101584 4.40883 -0.743464 0.278105 -0.60821 24 16 18
0.0793872 0.104473 4.24647 -0.556171 0.440285 -0.704857 36 26 30
0.0993524 0.0928947 4.26204 -0.810358 0.159532 -0.5638 39 28 31
0.12756 0.0909762 4.18846 -0.803681 0.184188 -0.565837 53 43 44
0.161622 0.0936861 4.13173 -0.866625 -0.111492 -0.486344 73 63 63
0.217067 0.0993789 4.09754 -0.360377 -0.223299 -0.905685 67 55 55
0.231363 0.0866536 4.04479 -0.747463 -0.30176 -0.59181 61 50 49
0.351189 0.092966 4.10034 0.692669 -0.271664 -0.668138 46 33 33
0.381774 0.0816144 4.07788 -0.769287 0.316625 -0.55493 44 32 31
0.410037 0.0941134 4.04277 -0.428284 0.623421 -0.654154 39 30 30
0.707233 0.101598 4.25963 0.580893 0.332359 -0.743035 44 38 37
0.731655 0.101434 4.25672 0.151534 0.0734302 -0.985721 36 29 30
0.770944 0.0969627 4.29943 0.704851 0.223185 -0.67333 24 17 19
0.769354 0.102514 4.30263 0.709253 0.214069 -0.671666 25 18 20
0.856219 0.0965917 4.31758 -0.68496 0.124588 -0.717849 28 22 26
0.888712 0.0936185 4.28147 -0.672516 0.148954 -0.724938 31 27 26
0.928354 0.0980354 4.27308 -0.424043 0.239557 -0.873384 45 37 32
0.965791 0.0847083 4.26887 -0.362643 -0.614309 -0.700795 54 45 41
0.988874 0.0860187 4.2543 -0.358524 -0.129964 -0.924429 55 43 39
1.02466 0.0873317 4.23235 -0.483716 0.0342003 -0.874557 50 42 34
1.04944 0.0874624 4.22729 -0.341378 -0.389009 -0.855648 43 36 30
1.07301 0.0875173 4.22076 -0.290357 -0.340076 -0.89445 36 31 27
1.26078 0.0875815 4.28335 -0.954069 0.0339907 -0.297651 49 49 47
1.25779 0.0991543 4.21736 -0.427356 0.68254 -0.592879 51 50 50
1.38999 0.0863365 4.22955 -0.962428 -0.156962 -0.221574 56 55 52
-0.738256 0.113919 3.99445 -0.319456 0.576512 -0.752051 16 18 21
-0.699358 0.103539 3.95872 -0.56224 0.364126 -0.742495 15 15 19
-0.62069 0.108037 3.96579 0.175158 0.708948 -0.683163 15 18 19
-0.579748 0.0984415 3.95421 0.378979 0.671894 -0.636344 17 18 17
-0.558463 0.107923 4.02971 0.327783 0.577252 -0.747889 14 14 13
-0.550282 0.120941 4.08238 0.615512 -0.0546292 -0.786232 17 17 16
-0.527194 0.104051 4.09095 -0.0198278 0.394943 -0.918491 24 22 24
-0.50296 0.102003 4.08036 0.304525 0.576452 -0.758266 24 22 22
-0.48347 0.112827 4.12535 0.441578 0.645481 -0.623188 16 16 15
-0.268668 0.107116 4.21282 -0.418505 0.574187 -0.703678 20 15 15
-0.245177 0.106948 4.21759 0.440313 -0.000350311 -0.897845 23 13 15
-0.222298 0.107032 4.2322 0.587387 0.0573673 -0.80727 31 19 22
-0.206282 0.125849 4.26024 -0.0579687 0.708774 -0.70305 35 23 25
-0.169717 0.115077 4.28623 0.0862004 0.718477 -0.690188 42 30 31
-0.119723 0.107434 4.31513 -0.0301272 0.67651 -0.735817 26 14 15
-0.0933815 0.10764 4.3336 0.349488 0.249548 -0.903097 32 22 25
-0.0510246 0.116956 4.38394 0.0878198 0.720395 -0.687982 36 26 24
-0.0150799 0.108741 4.38243 0.00812398 0.723073 -0.690724 21 11 11
0.011602 0.117878 4.41214 -0.518594 0.168295 -0.838294 19 10 11
0.0789629 0.114949 4.25221 -0.783085 0.215185 -0.583501 39 29 32
0.0795516 0.111961 4.3668 -0.773101 0.241786 -0.586391 35 25 29
0.0802033 0.114637 4.36197 -0.78385 0.218939 -0.581072 36 26 29
0.116118 0.106826 4.2124 -0.811908 0.157382 -0.56217 50 39 42
0.168657 0.120515 4.14896 -0.862993 -0.117601 -0.491337 78 67 69
0.193614 0.111985 4.12177 -0.865054 -0.208803 -0.456161 74 63 63
0.221925 0.119651 4.10563 -0.821293 -0.255725 -0.509983 72 58 58
0.242996 0.109631 4.05483 -0.772316 -0.393371 -0.498786 64 52 50
0.300076 0.108084 4.09701 -0.278683 0.352031 -0.893538 53 41 39
0.330697 0.107978 4.09686 0.61395 0.0202901 -0.789084 48 35 34
0.343571 0.111319 4.10679 0.364721 0.0479519 -0.929881 44 31 32
0.493865 0.103699 4.05748 0.301381 0.636985 -0.709521 46 37 36
0.540253 0.11533 4.11883 0.515337 0.49309 -0.700921 45 38 37
0.543892 0.114273 4.11412 0.504972 0.508024 -0.697793 44 37 36
0.852827 0.125776 4.31436 -0.099564 -0.844949 -0.525499 36 26 26
0.873455 0.113002 4.30187 -0.692695 -0.0653241 -0.718266 36 28 26
0.896213 0.123983 4.28533 -0.521202 -0.0319631 -0.852835 49 39 33
0.916701 0.1121 4.27494 -0.222642 0.00399486 -0.974892 44 34 29
0.935521 0.125354 4.27535 -0.101596 -0.129993 -0.986296 59 42 36
0.952348 0.107087 4.2652 -0.558499 0.136775 -0.818151 57 42 37
0.977281 0.107163 4.25764 -0.394043 0.15595 -0.905765 58 38 33
0.9984 0.106981 4.24176 -0.307284 -0.0333424 -0.951034 54 35 29
1.0211 0.106924 4.23203 -0.362843 -0.00404848 -0.931842 50 33 27
1.05855 0.107212 4.21795 -0.299298 0.428363 -0.852599 51 40 35
1.08437 0.107284 4.21866 -0.281987 -0.45764 -0.843237 38 35 30
1.26141 0.119052 4.3341 -0.743493 0.480743 -0.464871 48 48 46
1.37647 0.108569 4.27068 -0.959227 -0.174094 -0.222654 54 55 54
1.41194 0.112944 4.23931 -0.954506 -0.216522 -0.20503 59 58 55
-0.764311 0.119892 4.01056 -0.217162 0.625314 -0.749549 60 62 63
-0.714776 0.142326 4.07261 -0.332313 0.571248 -0.750496 15 14 17
-0.594494 0.123118 3.99711 0.416071 0.657795 -0.627847 18 18 17
-0.563639 0.138458 4.07097 0.315974 0.686184 -0.655219 15 15 12
-0.512769 0.127505 4.10426 -0.419281 0.538416 -0.730966 21 20 20
-0.495576 0.13215 4.11887 0.120616 0.238624 -0.963592 17 16 17
-0.257707 0.129682 4.22783 0.106896 0.705035 -0.70107 23 14 15
-0.234863 0.129844 4.24444 0.162981 0.576972 -0.800338 30 18 20
-0.225676 0.135877 4.24294 0.705418 -0.0810424 -0.704144 34 22 25
-0.142759 0.132482 4.36728 -0.0432836 0.526221 -0.849245 29 17 18
-0.109453 0.132172 4.35463 -0.0673184 0.483652 -0.872668 28 17 18
-0.0765118 0.132192 4.35275 0.0543348 0.60557 -0.793935 35 24 26
-0.082502 0.131822 4.35351 0.0492446 0.583744 -0.810443 34 24 26
-0.0508388 0.146813 4.39211 0.669574 0.193718 -0.717038 27 17 15
-0.0054135 0.139454 4.40455 -0.663987 0.392756 -0.636289 22 13 14
0.0254551 0.137876 4.41172 -0.552891 0.50507 -0.662734 23 15 17
0.0592982 0.139934 4.34482 -0.711381 0.238147 -0.661228 38 28 31
0.0613343 0.136585 4.32423 -0.673265 0.242364 -0.698551 39 29 32
0.0658278 0.142116 4.33458 -0.680234 0.335336 -0.651791 42 31 34
0.103693 0.134646 4.26364 -0.790877 0.0816395 -0.606506 50 37 40
0.142835 0.125437 4.18519 -0.745183 0.300286 -0.595426 73 63 65
0.164151 0.13686 4.16156 -0.840075 -0.288018 -0.459695 79 68 71
0.20768 0.139564 4.1287 -0.801064 -0.0929849 -0.591312 78 64 66
0.229613 0.132598 4.09095 -0.873806 -0.0834515 -0.47906 71 58 58
0.312854 0.13153 4.09566 0.10891 0.461075 -0.880652 51 35 36
0.345706 0.13289 4.11109 -0.00926021 -0.723687 -0.690066 42 27 29
0.433817 0.131827 4.09004 -0.831187 -0.381818 -0.404158 40 29 31
0.508192 0.143085 4.11389 0.306471 0.599062 -0.73973 46 36 36
0.687665 0.138031 4.2668 0.711804 0.226144 -0.664976 46 38 41
0.716323 0.1323 4.26065 0.490109 0.174153 -0.854087 42 35 35
0.797791 0.131777 4.26963 0.601597 -0.523088 -0.603705 33 22 24
0.828731 0.131334 4.32321 0.108691 -0.856927 -0.503847 33 22 24
0.854471 0.142353 4.33443 -0.86694 0.148947 -0.475635 42 27 28
0.876423 0.147861 4.30412 -0.713561 0.261404 -0.649998 49 30 29
0.897294 0.148243 4.2873 -0.481237 0.291499 -0.826704 50 31 27
0.92092 0.148229 4.28238 -0.15421 0.269603 -0.950544 58 36 33
0.96637 0.12836 4.26552 -0.334856 0.210025 -0.918564 56 33 29
0.988525 0.128273 4.25391 -0.356097 -0.0985294 -0.92924 57 30 27
1.02539 0.137098 4.24348 0.0620061 0.190499 -0.979727 60 33 29
1.07957 0.131679 4.23424 0.256197 0.167905 -0.95193 49 41 35
1.11067 0.13201 4.25244 0.707398 0.0766784 -0.702644 39 37 35
1.28252 0.140674 4.32859 -0.823924 0.238062 -0.514272 51 48 49
1.31431 0.128438 4.28437 -0.375161 0.69777 -0.610223 52 53 54
1.36994 0.150803 4.30905 -0.956571 0.0558084 -0.286109 56 56 58
1.38014 0.134706 4.2827 -0.936123 0.157474 -0.314444 57 56 57
1.39415 0.130763 4.25011 -0.541527 0.364468 -0.757569 58 57 55
1.41643 0.130389 4.23889 -0.964122 -0.15229 -0.217431 59 58 56
1.4246 0.128963 4.23264 -0.962802 -0.167951 -0.21167 59 58 56
1.42462 0.128964 4.23269 -0.962803 -0.167967 -0.211653 59 58 56
-0.765714 0.149531 4.03494 -0.0661334 0.501661 -0.862532 28 29 29
-0.478253 0.147668 4.18093 -0.231713 0.646564 -0.726818 15 16 16
-0.441254 0.145842 4.15052 -0.615972 0.35725 -0.702104 15 16 16
-0.40221 0.151465 4.14587 -0.500224 0.360786 -0.787153 24 29 23
-0.408333 0.152823 4.15149 -0.588961 0.356938 -0.725066 23 27 22
-0.408316 0.152817 4.15133 -0.588563 0.354836 -0.726419 23 27 22
-0.372003 0.152641 4.15006 -0.0700296 -0.325544 -0.94293 24 32 21
-0.279398 0.15256 4.20547 0.829774 -0.353761 -0.431659 24 18 16
-0.257991 0.16207 4.26476 0.00845532 0.709861 -0.704291 26 13 15
-0.224274 0.168105 4.28191 0.437876 0.625631 -0.645639 33 20 23
-0.142671 0.161865 4.383 -0.0268136 0.71265 -0.701007 28 15 15
-0.0825249 0.161904 4.37625 -0.0953962 0.499318 -0.861151 32 20 22
-0.0491009 0.163379 4.41202 0.784059 0.0394166 -0.619434 23 13 12
-0.0490961 0.163365 4.41165 0.780461 0.041854 -0.623802 23 13 12
-0.0490961 0.163365 4.41165 0.780461 0.041854 -0.623802 23 13 12
0.0213271 0.174103 4.44499 -0.5534 0.507065 -0.660783 28 20 22
0.057682 0.173152 4.41161 -0.751965 0.270393 -0.601196 43 32 35
0.118182 0.154706 4.25331 -0.849108 0.0185043 -0.527895 61 49 50
0.13813 0.165812 4.21061 -0.852916 -0.237017 -0.465143 67 57 58
0.170251 0.16218 4.15377 -0.395826 -0.339616 -0.85322 80 70 73
0.207383 0.152428 4.13031 -0.870684 -0.178686 -0.458236 77 63 65
0.245479 0.155838 4.09245 -0.554598 0.517457 -0.651659 67 54 53
0.248939 0.159121 4.08875 -0.559984 0.512103 -0.651282 67 53 53
0.278338 0.158851 4.07377 -0.239164 0.676776 -0.696258 58 42 44
0.323128 0.150441 4.08971 -0.175263 -0.30667 -0.935541 47 30 33
0.34582 0.153076 4.07987 -0.270324 -0.819132 -0.505913 49 31 35
0.405794 0.147249 4.10448 -0.171788 -0.81502 -0.553381 40 25 26
0.43205 0.157185 4.08291 -0.274515 -0.79921 -0.534701 42 29 30
0.463266 0.160468 4.0723 -0.292086 -0.782391 -0.550046 42 28 30
0.65677 0.152834 4.25065 0.0499649 0.703201 -0.709234 42 33 37
0.749991 0.160236 4.21852 0.665021 0.286848 -0.68954 43 32 33
0.752481 0.156272 4.22134 0.637274 0.329207 -0.696782 41 30 32
0.754111 0.150906 4.21986 0.640631 0.324714 -0.695811 39 28 30
0.810493 0.156857 4.30677 0.648298 -0.451261 -0.613248 35 23 24
0.861307 0.169173 4.31352 -0.533934 0.211904 -0.818542 43 21 22
0.886131 0.17087 4.29473 -0.389084 0.0948455 -0.916307 55 33 34
0.909859 0.170774 4.28704 -0.239552 0.0488633 -0.969653 51 25 28
0.934322 0.170785 4.28128 -0.195788 0.208419 -0.958243 53 25 28
0.967297 0.161193 4.27201 -0.852099 0.281976 -0.440927 62 31 32
1.00087 0.149573 4.25482 0.0773886 0.624954 -0.776816 62 36 31
1.01863 0.168459 4.26862 -0.713114 0.479285 -0.51162 62 36 31
1.08024 0.166048 4.25204 0.437635 0.3367 -0.833732 59 46 39
1.21157 0.16187 4.33364 0.435325 -0.657 -0.615503 48 44 43
1.24183 0.162302 4.35111 0.215452 -0.07677 -0.973492 48 48 45
1.26823 0.162739 4.352 -0.420148 -0.0644451 -0.905164 51 50 50
1.31211 0.15555 4.32388 -0.442174 0.486936 -0.753243 51 49 52
1.38836 0.152635 4.26516 -0.160672 0.0692018 -0.984579 58 56 55
1.44177 0.152804 4.26656 -0.362834 -0.573027 -0.734841 57 56 53
1.49925 0.162038 4.18082 -0.295534 -0.535342 -0.791245 58 56 55
1.51751 0.147551 4.17107 -0.875516 -0.272704 -0.398879 55 56 57
1.55308 0.157235 4.19313 0.590474 0.189401 -0.784517 55 56 57
-0.71382 0.178881 4.09524 -0.320496 0.574203 -0.753375 13 13 13
-0.679991 0.169503 4.09957 -0.303777 0.58877 -0.749046 17 15 15
-0.615538 0.186028 4.20683 -0.0494098 0.690573 -0.721573 15 14 13
-0.494943 0.175112 4.20394 -0.159489 0.668315 -0.72658 16 16 18
-0.451375 0.169548 4.19621 -0.688169 0.243375 -0.683515 17 16 16
-0.422724 0.187923 4.19233 -0.620102 0.352326 -0.700957 33 26 21
-0.403315 0.189848 4.18401 -0.462849 0.513731 -0.722392 41 27 23
-0.293827 0.168362 4.16051 0.671305 -0.0907339 -0.735606 27 18 16
-0.276769 0.182278 4.22434 0.893916 -0.100627 -0.436794 25 12 13
-0.276767 0.182276 4.2243 0.893943 -0.10043 -0.436783 25 12 13
-0.264579 0.171764 4.25427 0.889729 -0.124554 -0.439168 26 13 14
-0.195596 0.184992 4.40328 -0.435406 0.567881 -0.698523 40 28 30
-0.163571 0.191618 4.41136 -0.598169 0.341086 -0.725158 29 14 15
-0.137569 0.190581 4.3977 -0.541252 -0.079229 -0.83712 38 24 24
-0.0641144 0.188014 4.40033 -0.0041948 0.711734 -0.702436 26 15 18
-0.0711288 0.182247 4.39748 0.586098 0.24064 -0.77368 30 19 22
-0.0293095 0.184173 4.4463 0.277585 0.675027 -0.683583 24 14 15
0.0735411 0.182339 4.40736 -0.796837 0.180386 -0.576639 49 37 40
0.122668 0.181684 4.20827 -0.77919 -0.283618 -0.558948 59 45 49
0.126523 0.179058 4.21107 -0.772697 -0.33827 -0.537133 59 46 49
0.145346 0.18509 4.1741 -0.383618 -0.391991 -0.83617 64 52 54
0.147279 0.172425 4.18398 -0.762252 -0.387668 -0.518348 70 59 62
0.171121 0.184259 4.1571 0.124232 -0.663316 -0.737955 74 62 66
0.199315 0.18053 4.14841 -0.637552 -0.435595 -0.63544 73 59 63
0.221937 0.166896 4.1298 -0.841384 -0.306384 -0.445198 73 59 60
0.267037 0.183478 4.09851 -0.237085 0.426531 -0.872847 59 41 45
0.290236 0.183698 4.0963 -0.195563 0.475669 -0.85761 54 34 39
0.302608 0.170128 4.08788 -0.224785 0.142576 -0.963921 52 33 37
0.325855 0.173133 4.08583 -0.502476 -0.518363 -0.691967 54 34 39
0.351441 0.178766 4.08086 -0.368977 -0.443929 -0.816568 61 37 43
0.386082 0.179246 4.08891 -0.0421089 -0.511145 -0.858463 59 36 42
0.386828 0.179607 4.08982 -0.0292686 -0.550375 -0.834405 59 37 42
0.405509 0.167649 4.07768 0.00245502 -0.758282 -0.651922 51 32 36
0.434099 0.178522 4.07873 -0.305998 -0.519432 -0.797845 52 32 34
0.465486 0.166608 4.07463 0.0195507 -0.835516 -0.549119 43 29 31
0.499167 0.169652 4.09139 0.731891 0.226023 -0.642845 45 34 35
0.519109 0.170908 4.11198 0.7904 0.0703048 -0.608543 47 36 35
0.767884 0.192403 4.24814 0.677597 0.258827 -0.688383 43 27 31
0.85147 0.193165 4.32783 -0.632555 0.0985296 -0.768222 45 20 25
0.875724 0.192875 4.30943 -0.41356 0.216262 -0.88442 64 41 44
0.899384 0.192601 4.29757 -0.213526 -0.00266425 -0.976934 68 47 51
0.922934 0.19245 4.28892 -0.318758 0.089077 -0.943641 68 43 47
0.956218 0.187633 4.27256 -0.51651 0.408946 -0.752316 56 27 28
0.97996 0.187353 4.25981 -0.63791 0.223187 -0.73706 62 35 33
1.00598 0.188396 4.27253 -0.324259 -0.383052 -0.864943 61 34 32
1.05444 0.177324 4.25273 -0.650166 -0.463803 -0.601806 55 26 26
1.06767 0.192499 4.25453 0.375045 0.0387272 -0.926197 58 32 31
1.09503 0.192381 4.26329 0.552222 0.183928 -0.813155 56 43 35
1.23865 0.187893 4.32263 -0.904961 0.21551 -0.366881 52 52 50
1.33665 0.182385 4.33393 -0.290971 0.273407 -0.916834 53 55 57
1.36301 0.196298 4.33726 -0.945523 0.107697 -0.307225 57 57 61
1.38653 0.183916 4.30526 -0.951682 -0.146131 -0.270087 57 54 55
1.40262 0.176797 4.26948 -0.352333 -0.00799358 -0.93584 56 51 47
1.42626 0.177717 4.25751 -0.454836 -0.771977 -0.444045 54 50 45
1.42497 0.191956 4.23485 -0.768777 -0.535059 -0.350277 57 53 50
1.45265 0.181933 4.21964 -0.38705 -0.849067 -0.359552 57 57 55
1.43947 0.18785 4.2036 -0.966259 0.02047 -0.256759 58 57 54
1.47574 0.17682 4.1752 -0.277833 -0.507709 -0.8155 56 54 54
1.49693 0.183947 4.15931 0.480196 0.371599 -0.79456 52 49 46
1.52786 0.171087 4.18397 -0.205904 -0.559152 -0.803089 55 55 52
1.55503 0.180009 4.18271 0.0804741 0.347066 -0.934382 55 56 52
-0.51736 0.207005 4.26161 -0.530761 0.439638 -0.724576 18 14 17
-0.480464 0.209747 4.24473 -0.617748 0.344015 -0.707136 18 14 15
