ply
format ascii 1.0
element vertex 719
property float x
property float y
property float z
property float nx
property float ny
property float nz
property uchar diffuse_red
property uchar diffuse_green
property uchar diffuse_blue
end_header
3.15931 1.48129 -2.10469 -0.0298697 -0.987585 -0.154219 131 132 92
3.1797 1.49839 -2.11519 -0.0690822 -0.99621 -0.0528455 130 132 95
3.15802 1.49898 -2.12996 -0.0692784 -0.99635 -0.0498799 132 134 95
3.09174 1.44756 -2.27668 -0.0481277 -0.965741 -0.255008 130 131 94
3.08888 1.44778 -2.30383 0.225646 -0.971418 -0.0736989 133 133 95
3.08925 1.43943 -2.29008 0.19147 -0.98029 -0.0486802 129 129 90
3.06705 1.43918 -2.29606 0.136895 -0.97363 -0.182498 131 131 93
3.06584 1.44482 -2.34883 0.147021 -0.987076 -0.0637707 133 134 100
3.05831 1.43419 -2.37104 0.191404 -0.977968 -0.0833278 136 137 102
3.0574 1.44798 -2.38182 0.22706 -0.971805 -0.0635553 139 140 106
2.84025 1.3511 -2.9431 -0.856732 -0.23247 0.460401 139 140 96
2.82396 1.3603 -2.99109 -0.934341 -0.263408 0.240049 138 139 95
2.81044 1.36302 -3.01005 -0.872628 -0.449969 -0.189866 140 141 98
2.73253 1.30734 -3.22003 -0.545336 -0.725639 0.419591 130 133 100
2.72124 1.30865 -3.23821 -0.396174 -0.887573 0.235078 130 133 100
2.7167 1.30853 -3.21112 -0.700294 -0.55438 0.449723 131 136 102
2.71087 1.30503 -3.2652 -0.621925 -0.426366 0.656827 130 133 100
2.6821 1.29335 -3.32393 -0.306655 -0.929405 -0.205349 129 132 101
2.63362 1.35464 -3.63277 -0.839768 -0.54215 0.0293729 135 141 109
2.63635 1.3644 -3.67927 0.0426358 -0.998342 0.0386634 136 142 111
2.61937 1.35513 -3.77831 0.351844 -0.935998 -0.0106564 131 136 103
2.60356 1.34967 -3.7691 0.293243 -0.956029 0.00417608 122 126 93
2.58793 1.34621 -3.77994 0.38539 -0.890782 0.240793 121 126 93
2.55764 1.29638 -3.79649 0.558377 -0.755948 0.341698 134 141 108
2.48752 1.20501 -3.77951 -0.982897 -0.0969437 0.156573 135 141 108
2.51315 1.25309 -3.81847 0.57487 -0.749204 0.328965 128 134 101
2.50487 1.23322 -3.82866 0.601709 -0.722441 0.340625 130 135 102
2.48229 1.20625 -3.84602 0.573218 -0.733251 0.365739 129 135 101
2.40104 1.35142 -4.45511 -0.0131608 -0.714798 0.699207 126 131 100
2.3503 1.28626 -4.55376 -0.207465 -0.918982 0.335306 122 127 93
3.2338 1.40351 -1.48656 0.090792 -0.976721 -0.194354 131 134 102
3.25063 1.40101 -1.49823 0.392892 -0.918847 -0.0368366 132 135 102
3.23094 1.40457 -1.51107 0.394405 -0.853753 0.339927 124 127 93
3.24886 1.42799 -1.52484 0.414941 -0.90294 0.111908 125 128 95
3.03291 1.27477 -1.89401 -0.238086 -0.819487 -0.521303 125 127 96
3.03218 1.30175 -1.92966 -0.291342 -0.869605 -0.398632 131 133 102
3.02095 1.28595 -1.94445 -0.168403 -0.949999 -0.262948 130 132 101
3.15179 1.47761 -2.07495 0.0285763 -0.975894 -0.216367 133 134 96
3.15487 1.48613 -2.08938 -0.0032671 -0.986654 -0.162797 131 133 93
3.12927 1.46545 -2.08134 0.156234 -0.983336 -0.0929624 135 138 99
3.1293 1.47125 -2.10521 0.234984 -0.966804 -0.100358 126 129 92
3.10747 1.44868 -2.09343 0.217959 -0.972772 -0.0787918 135 137 98
3.06651 1.45105 -2.30669 0.0823674 -0.962031 -0.260216 131 132 95
3.04043 1.44434 -2.33009 0.153308 -0.987545 -0.0353661 134 135 96
3.04195 1.44386 -2.36002 0.12028 -0.992293 -0.0297961 138 138 101
3.03089 1.4375 -2.37377 0.264054 -0.963821 -0.0364081 137 138 103
3.00246 1.42024 -2.36123 0.416031 -0.897108 0.148712 134 135 99
3.03022 1.445 -2.38783 0.312829 -0.938397 -0.146798 140 141 106
2.99368 1.42012 -2.40015 0.344712 -0.937774 -0.0418887 141 143 106
2.98826 1.41253 -2.4341 0.292594 -0.954483 -0.0578886 144 144 108
2.95 1.38867 -2.47675 -0.0545146 -0.997839 -0.0366722 145 144 106
2.9457 1.40327 -2.55912 0.262094 -0.948554 -0.17763 133 134 101
2.85857 1.40027 -2.91753 -0.242143 -0.601317 0.761436 134 137 100
2.70551 1.33729 -3.21595 -0.44741 -0.598536 0.664515 134 137 99
2.706 1.32364 -3.23296 -0.514728 -0.752013 0.411743 127 132 101
2.68309 1.31818 -3.24687 -0.139574 -0.875017 0.463535 132 137 103
2.65917 1.30019 -3.30816 -0.0648218 -0.988767 -0.134678 129 132 100
2.63451 1.29173 -3.33112 -0.0394916 -0.956303 0.289698 124 127 93
2.59021 1.33665 -3.61488 -0.159212 -0.986821 -0.0289294 132 138 104
2.61367 1.36093 -3.66128 -0.218104 -0.975716 -0.0202107 135 141 109
2.60137 1.37779 -3.68368 0.0199201 -0.981548 -0.190176 133 140 108
3.29685 1.47722 -1.36843 -0.596913 -0.787068 -0.155626 117 121 88
3.20776 1.39364 -1.47342 0.292504 -0.936568 -0.193086 126 129 95
3.2067 1.39718 -1.49834 0.153398 -0.974485 -0.163852 130 132 99
3.20649 1.39487 -1.54235 0.0541301 -0.986549 -0.154242 130 133 99
3.18597 1.39024 -1.53374 -0.0968961 -0.979226 -0.178122 124 127 99
3.18546 1.39493 -1.55633 -0.0558334 -0.986836 -0.151781 123 126 96
3.18358 1.39388 -1.55351 0.0312585 -0.987826 -0.15239 124 127 99
3.18362 1.40138 -1.57389 0.0295322 -0.988331 -0.149433 124 127 96
3.01098 1.27095 -1.88691 -0.117755 -0.893916 -0.43249 125 126 94
3.01039 1.28716 -1.90086 -0.167529 -0.892284 -0.419241 127 128 96
3.10079 1.48314 -2.10085 -0.0686904 -0.992325 0.102819 127 131 96
2.9922 1.41836 -2.28583 -0.292118 -0.719033 0.630601 126 129 91
2.99224 1.41831 -2.28579 -0.291872 -0.718778 0.631006 126 129 91
3.01836 1.43752 -2.32023 0.337678 -0.932519 0.127991 134 133 96
3.01373 1.44504 -2.33834 0.299906 -0.953048 -0.0419095 135 135 98
2.9981 1.42951 -2.33797 0.399972 -0.916184 0.0250985 133 133 98
2.97647 1.41908 -2.35123 0.40618 -0.901903 0.146933 134 134 98
2.95914 1.40245 -2.42202 0.035493 -0.999257 0.0150085 145 144 105
2.95547 1.39711 -2.44981 0.00272033 -0.99947 -0.0324255 146 145 107
2.9313 1.3995 -2.46488 0.00980911 -0.999131 -0.0405065 144 143 104
2.9238 1.39425 -2.53089 -0.01576 -0.996703 -0.0795945 140 141 106
2.65433 1.2077 -2.95752 0.380292 -0.923817 -0.044043 131 131 96
2.69752 1.33614 -3.19139 -0.440755 -0.541235 0.716101 133 135 97
2.68132 1.32704 -3.22537 -0.348892 -0.7913 0.502115 126 129 96
2.68201 1.34035 -3.20733 -0.393781 -0.726525 0.563115 131 134 99
2.66217 1.32513 -3.23724 -0.165928 -0.825328 0.539723 134 139 105
2.64112 1.31101 -3.29794 -0.0289893 -0.993449 -0.110542 133 135 101
2.34431 1.344 -4.48192 -0.273655 -0.609037 0.744437 123 128 95
3.16181 1.38699 -1.54835 0.000852391 -0.98802 -0.154326 120 123 93
3.16179 1.39848 -1.56446 0.0259131 -0.98838 -0.149776 124 128 99
3.12801 1.47857 -1.93016 -0.291022 -0.92125 0.258079 129 132 95
2.98713 1.28178 -1.89443 -0.151021 -0.893929 -0.422001 128 130 99
3.11637 1.47347 -1.96076 -0.0170607 -0.979668 0.199898 130 131 95
2.98765 1.29016 -1.92799 -0.139666 -0.978152 -0.153986 130 131 100
2.96396 1.2668 -1.90749 -0.146004 -0.93615 -0.319853 123 123 94
2.96677 1.2887 -1.95616 -0.180069 -0.970821 -0.158375 134 136 103
2.9859 1.29289 -1.95388 -0.108676 -0.983217 -0.146537 140 143 108
2.95913 1.2899 -1.98995 -0.456894 -0.708115 -0.53835 136 137 101
3.07626 1.48056 -2.10329 -0.0729164 -0.984184 0.161445 133 135 97
2.99151 1.43564 -2.25897 0.216724 -0.964848 -0.14866 129 132 96
2.97142 1.42566 -2.32791 0.358908 -0.923675 0.134199 129 132 96
2.96139 1.4099 -2.35647 -0.0770728 -0.740558 0.667558 131 132 96
2.96237 1.43103 -2.38999 0.387901 -0.763325 0.516593 133 135 99
2.93786 1.42359 -2.40015 0.429849 -0.712429 0.554684 133 135 99
2.93435 1.40383 -2.43688 -0.093111 -0.994681 -0.0440538 142 141 104
2.63518 1.12055 -2.67088 -0.494199 -0.802075 0.335324 141 143 114
2.66209 1.33702 -3.21814 -0.166575 -0.826209 0.538174 132 137 102
2.63551 1.33096 -3.23406 0.0037505 -0.894696 0.446661 133 137 100
2.60647 1.30076 -3.32346 -0.0726088 -0.963297 0.25843 128 132 98
2.51225 1.27162 -3.51522 0.101888 -0.986837 0.125588 123 126 93
3.13759 1.39549 -1.5457 -0.1121 -0.976312 -0.185065 123 126 99
3.13687 1.39638 -1.54764 -0.109468 -0.981748 -0.155527 123 126 97
3.18376 1.50391 -1.70584 -0.104703 -0.990045 -0.0940612 129 132 100
3.10376 1.48046 -1.90726 -0.170799 -0.985049 0.0225016 117 119 82
2.94011 1.27456 -1.91969 0.0133561 -0.944725 -0.327592 123 125 96
2.94656 1.28964 -1.94374 -0.253795 -0.928712 -0.270337 133 137 106
2.94649 1.29551 -1.96404 -0.192441 -0.961444 -0.19645 134 137 102
2.94629 1.30352 -1.97916 -0.034412 -0.977081 -0.210069 135 137 102
2.62614 1.03589 -2.45302 -0.3737 -0.891631 -0.255621 145 147 121
2.60832 1.03974 -2.46477 -0.772858 -0.595666 -0.218799 146 147 130
2.63953 1.07906 -2.50278 -0.0706906 -0.878887 -0.471764 148 148 132
2.62417 1.06809 -2.49648 -0.760854 -0.591699 -0.266444 145 146 130
2.61673 1.05372 -2.48374 -0.7601 -0.610547 -0.222442 147 148 132
2.62241 1.08424 -2.53719 -0.721655 -0.659761 -0.209594 144 145 130
2.62803 1.11428 -2.58145 0.0483969 -0.927738 -0.370081 136 137 133
2.61668 1.07456 -2.55333 -0.715864 -0.566526 -0.40815 145 147 128
2.61752 1.10188 -2.59414 -0.84947 -0.485472 -0.206683 142 144 132
2.63818 1.34056 -3.2053 -0.0917101 -0.985948 0.139625 128 133 101
2.61316 1.32352 -3.2436 -0.118152 -0.949233 0.291542 121 126 92
2.58674 1.32134 -3.25845 -0.108383 -0.903752 0.414109 127 131 101
2.58736 1.31864 -3.34525 -0.281606 -0.626573 0.726708 128 133 98
3.12277 1.37989 -1.48671 0.117629 -0.907337 -0.403612 123 126 97
3.10204 1.47616 -1.80971 -0.154757 -0.980925 -0.117625 122 125 93
3.07964 1.47163 -1.87517 -0.0678155 -0.992911 -0.0976148 121 124 91
3.08108 1.47111 -1.88152 -0.0685231 -0.992926 -0.0969659 121 124 91
3.0883 1.47981 -1.90733 0.163854 -0.974809 -0.151324 126 128 98
3.08742 1.48414 -1.89529 -0.182229 -0.880981 0.436652 117 119 84
3.08545 1.48599 -1.8975 -0.0806711 -0.92827 0.363053 117 119 84
2.93827 1.26845 -1.88614 -0.172697 -0.932707 -0.316596 117 119 90
2.91289 1.27523 -1.90472 0.0915235 -0.979527 -0.179303 116 117 92
2.89874 1.40588 -2.37997 0.362589 -0.931134 -0.0389727 137 139 104
2.8794 1.39923 -2.41019 0.20052 -0.979317 -0.0270287 138 139 104
2.6094 1.07069 -2.48225 -0.195502 -0.887827 -0.416585 117 119 110
2.59998 1.09716 -2.55051 -0.0283672 -0.928852 -0.369364 69 71 72
2.61474 1.1002 -2.55715 -0.202389 -0.907556 -0.367942 124 126 127
2.59794 1.10721 -2.56845 -0.232657 -0.899064 -0.370884 66 67 67
2.61473 1.10866 -2.57761 -0.234963 -0.899458 -0.368467 122 124 121
2.61478 1.10814 -2.5777 -0.126908 -0.916083 -0.380377 123 125 124
2.61437 1.11724 -2.59625 -0.240373 -0.903328 -0.355273 120 122 117
2.61219 1.12437 -2.61744 -0.45975 -0.836484 -0.2982 115 117 114
2.56546 1.14205 -2.77086 0.0952521 -0.993893 -0.0557112 133 140 156
2.58622 1.34108 -3.20888 -0.145157 -0.979139 -0.142186 138 141 104
2.60811 1.33667 -3.22039 -0.0673005 -0.92207 0.381126 126 130 96
2.58755 1.3318 -3.2307 -0.143529 -0.849419 0.507825 126 130 96
3.13608 1.49954 -1.69052 0.0725814 -0.975981 -0.205409 131 135 105
3.10967 1.49196 -1.68346 0.201089 -0.956476 -0.211462 134 137 107
3.05755 1.46834 -1.83776 0.0807665 -0.991834 -0.0986992 126 128 93
2.57438 1.05078 -2.42297 0.0211482 -0.986388 -0.163067 53 56 60
2.57295 1.05506 -2.44638 0.156512 -0.952734 -0.260388 39 39 39
2.57609 1.07072 -2.47077 -0.0639669 -0.940078 -0.334904 47 48 47
2.57681 1.07887 -2.49372 -0.0958236 -0.925625 -0.36611 46 48 47
2.5931 1.08241 -2.50079 -0.0910536 -0.931835 -0.351273 59 61 61
2.58266 1.0836 -2.52331 -0.166108 -0.908303 -0.38392 47 49 48
2.59532 1.08966 -2.52502 -0.0888177 -0.931774 -0.352006 60 62 62
2.58155 1.10189 -2.56205 -0.0721755 -0.926464 -0.369398 43 44 46
2.58199 1.09323 -2.54174 -0.0729312 -0.924854 -0.373263 44 45 45
2.56806 1.0811 -2.55247 0.248009 -0.936214 -0.248987 32 35 36
2.58176 1.11001 -2.58312 -0.0516197 -0.927918 -0.369192 42 44 45
2.59697 1.11529 -2.58861 -0.232756 -0.898997 -0.370983 62 63 63
2.58292 1.11754 -2.60474 -0.081177 -0.91907 -0.385643 43 45 46
2.56776 1.11701 -2.62718 0.137251 -0.942573 -0.304498 34 37 39
2.57066 1.14999 -2.68027 0.0387623 -0.919288 -0.391672 136 142 156
2.59357 1.16111 -2.71421 0.0111881 -0.991847 -0.126945 150 154 166
2.56469 1.14046 -2.7441 0.0810329 -0.993314 -0.0822223 135 142 159
2.56483 1.1421 -2.74153 0.138209 -0.985954 -0.093775 135 142 159
2.54359 1.13876 -2.75868 0.0714888 -0.993029 -0.0937168 126 136 156
2.54232 1.14239 -2.78504 0.105189 -0.98101 -0.162957 132 141 162
2.50289 1.16616 -2.98924 -0.116828 -0.957504 -0.2637 126 133 148
2.50302 1.16581 -2.9914 -0.110714 -0.947489 -0.300011 125 132 147
2.55505 1.31169 -3.23387 -0.555534 -0.509303 0.657261 131 135 105
2.54178 1.3171 -3.27804 -0.441867 -0.643069 0.625473 134 139 109
2.51979 1.31407 -3.29132 -0.577519 -0.52783 0.62279 135 140 110
3.08229 1.43984 -1.57783 -0.0493419 -0.957647 -0.283686 127 129 96
3.08411 1.48427 -1.71275 0.261019 -0.926674 -0.270452 134 138 106
2.70067 1.06855 -1.95709 0.221098 -0.881829 0.416526 144 148 158
2.64774 1.03917 -2.06252 -0.0592069 -0.98032 0.188327 132 137 146
2.6447 1.0296 -2.08392 -0.0362535 -0.975408 0.217407 133 138 147
2.58675 1.03561 -2.25872 0.346863 -0.932311 -0.102387 136 139 153
2.56314 1.03939 -2.35861 0.218514 -0.955861 -0.196419 136 141 154
2.56537 1.04263 -2.38747 0.189007 -0.959083 -0.210801 137 142 154
2.5616 1.05098 -2.43835 0.0851903 -0.964814 -0.248751 42 44 46
2.56553 1.08075 -2.51481 -0.047703 -0.933494 -0.355406 40 42 42
2.56326 1.09819 -2.5528 -0.0678373 -0.93464 -0.349065 38 40 41
2.5609 1.10789 -2.57014 -0.0795893 -0.933261 -0.350271 38 39 41
2.56447 1.11462 -2.59448 -0.0729352 -0.928718 -0.363543 38 39 41
2.54713 1.11867 -2.60694 -0.0727392 -0.922591 -0.378859 37 39 41
2.55055 1.13745 -2.6485 0.0202104 -0.9583 -0.285048 56 59 66
2.54898 1.14374 -2.6719 0.0567382 -0.978237 -0.199583 124 128 140
2.55146 1.14356 -2.6725 0.0561333 -0.978302 -0.199437 125 130 142
2.56904 1.14954 -2.68087 0.0344796 -0.927616 -0.37194 136 142 155
2.55275 1.14625 -2.7027 0.0471 -0.992632 -0.111638 133 140 157
2.55449 1.14661 -2.70231 0.0393535 -0.992321 -0.117263 134 141 157
2.54252 1.13738 -2.73159 0.0942534 -0.993405 -0.0652851 106 115 137
2.52204 1.1376 -2.77137 0.0399202 -0.992843 -0.112557 80 89 112
2.52261 1.14049 -2.79694 0.0525291 -0.988844 -0.139383 116 126 148
2.5221 1.14042 -2.79676 0.0501519 -0.988768 -0.14079 115 125 147
2.50036 1.14073 -2.8099 0.0462326 -0.987663 -0.149612 126 131 150
2.52347 1.14334 -2.82253 0.0834534 -0.987537 -0.133441 132 140 157
2.49667 1.15666 -2.90923 0.145199 -0.981725 -0.123013 133 139 155
2.49423 1.168 -2.94547 0.291482 -0.955883 0.0364086 131 136 150
2.48413 1.16391 -2.95345 0.0373325 -0.99489 -0.0938089 131 135 148
2.48486 1.17099 -2.9988 -0.0946658 -0.945596 -0.311265 126 133 147
2.48486 1.17111 -3.00015 -0.0867949 -0.938144 -0.33519 126 133 146
2.5415 1.33012 -3.22575 -0.64189 -0.399183 0.654699 133 137 105
2.42661 1.28713 -3.5008 -0.635031 -0.772072 0.0253081 124 129 98
2.67704 1.06352 -1.96942 0.0978513 -0.968992 0.226894 133 139 151
2.66842 1.05946 -1.99294 -0.0134024 -0.975637 0.218984 130 133 140
2.62754 1.03504 -2.07352 -0.00244698 -0.989042 0.147611 131 134 144
2.62429 1.02776 -2.09775 -0.272485 -0.95696 -0.0998987 131 133 140
2.60679 1.04408 -2.13616 0.419265 -0.907863 0.00109673 129 130 140
2.59384 1.03016 -2.18854 0.166285 -0.985702 -0.0272292 133 132 141
2.58686 1.03353 -2.23639 0.240133 -0.969227 -0.0541699 139 140 151
2.57076 1.02625 -2.24681 0.258951 -0.962847 -0.0766124 131 125 132
2.5704 1.02842 -2.27013 0.244008 -0.964772 -0.0983641 132 128 138
2.57011 1.03404 -2.29803 0.241343 -0.969207 -0.0488957 138 134 146
2.56001 1.03347 -2.32968 0.0717824 -0.981588 -0.177011 135 131 142
2.53717 1.03492 -2.3402 0.0744151 -0.98165 -0.175572 127 120 126
2.54116 1.03748 -2.37149 0.125737 -0.947398 -0.294324 126 128 138
2.52796 1.04479 -2.39935 -0.19665 -0.838098 0.508842 131 134 146
2.51385 1.03014 -2.4225 0.0887811 -0.840892 0.533872 46 49 53
2.51572 1.03981 -2.44147 -0.0150695 -0.9975 0.0690406 37 39 40
2.52812 1.13393 -2.6358 0.0369006 -0.97155 -0.233945 37 39 43
2.52749 1.14035 -2.65974 0.0267028 -0.96663 -0.254782 93 96 105
2.4965 1.13734 -2.75348 -0.0252303 -0.984 -0.176375 107 90 66
2.50035 1.13775 -2.78399 0.0505151 -0.991523 -0.119708 84 85 108
2.47823 1.13783 -2.79744 0.0751356 -0.993403 -0.0866333 121 126 146
2.48303 1.13726 -2.82055 0.0980106 -0.993038 -0.0653483 129 134 150
2.47772 1.15702 -2.91818 0.191695 -0.952337 -0.237291 129 132 145
2.46426 1.15632 -2.93403 0.0359294 -0.949772 -0.310873 130 122 127
2.44699 1.1569 -2.94851 -0.0313597 -0.977477 -0.208697 124 110 106
2.46385 1.16162 -2.95305 0.0167879 -0.952504 -0.304063 128 125 133
2.46514 1.16124 -2.95701 -0.0584203 -0.946244 -0.318134 130 129 138
2.44649 1.16406 -2.96703 0.024348 -0.958086 -0.285446 131 130 139
2.46561 1.16634 -2.97948 -0.13161 -0.959549 -0.248889 127 133 146
2.40811 1.3029 -3.51603 -0.645601 -0.759437 0.0803434 124 128 96
2.76556 1.13968 -1.7883 -0.675582 -0.50967 0.532752 131 135 126
2.59362 1.03431 -2.14415 0.344321 -0.938656 -0.0191972 124 119 125
2.55218 1.02229 -2.23544 0.0422063 -0.994815 -0.0925291 125 105 96
2.55761 1.03137 -2.23867 0.46928 -0.881243 0.0564528 124 110 110
2.55761 1.03137 -2.23867 0.46928 -0.881243 0.0564528 124 110 110
2.55034 1.02277 -2.25903 0.0363545 -0.995009 -0.0929241 117 96 86
2.52732 1.02449 -2.30428 0.0522536 -0.997093 -0.0554564 122 103 76
2.52794 1.04494 -2.37825 -0.148556 -0.975715 -0.160972 132 134 140
2.50952 1.04695 -2.38845 -0.152577 -0.988256 0.00844887 137 141 152
2.50965 1.04027 -2.40851 0.0810632 -0.593058 0.801069 104 108 118
2.47742 1.01952 -2.43977 -0.0487397 -0.755958 0.652803 39 41 42
2.51201 1.12697 -2.62996 0.0159771 -0.910673 -0.41282 37 38 41
2.50922 1.13783 -2.64586 0.0226763 -0.989066 -0.145719 42 45 52
2.49221 1.1381 -2.66263 0.0769404 -0.975884 -0.204283 83 87 96
2.4851 1.13294 -2.73305 0.107063 -0.990553 -0.0856851 94 80 65
2.47212 1.13916 -2.76388 0.000830233 -0.985099 -0.171984 66 67 95
2.45674 1.13666 -2.81007 0.0529954 -0.994743 -0.0876273 127 132 146
2.45443 1.14097 -2.83629 0.0989876 -0.981338 -0.164855 129 132 144
2.43524 1.13906 -2.84788 0.00698701 -0.994045 -0.108749 125 129 132
2.45377 1.14566 -2.86095 0.100134 -0.981712 -0.161908 128 131 144
2.43279 1.14555 -2.87333 0.199128 -0.966508 -0.161898 125 129 138
2.43356 1.14413 -2.86818 0.110152 -0.976505 -0.185213 126 129 137
2.45338 1.15019 -2.88391 0.117967 -0.989682 -0.0813252 127 130 143
2.43307 1.14899 -2.89695 0.198312 -0.976835 -0.0804163 130 126 134
2.435 1.14814 -2.93148 -0.0583463 -0.985732 -0.157883 122 98 77
2.42905 1.16011 -2.95969 0.0133758 -0.977325 -0.21132 131 122 124
2.42619 1.16569 -2.97694 0.0413374 -0.965515 -0.257044 127 129 141
2.41882 1.17344 -2.99121 0.100575 -0.994618 -0.0249097 137 143 158
2.6903 1.08783 -1.83757 0.380391 -0.909451 0.167931 31 33 35
2.59142 1.04761 -2.03936 0.273658 -0.959903 0.0608141 117 80 45
2.50795 1.0226 -2.29266 0.195445 -0.980368 0.0260832 120 102 58
2.50732 1.03785 -2.35387 0.0224117 -0.973658 -0.226912 120 122 128
2.49221 1.03804 -2.37346 0.0134873 -0.976781 -0.213814 130 133 143
2.49209 1.03705 -2.37627 0.00890091 -0.957717 -0.287574 131 134 145
2.48919 1.03558 -2.38007 0.0256856 -0.912321 -0.408669 132 136 146
2.49171 1.04591 -2.40031 -0.0263871 -0.883673 -0.46736 122 126 137
2.49026 1.04592 -2.40031 -0.0275705 -0.879863 -0.474427 122 126 137
2.47263 1.11985 -2.60604 0.0130768 -0.953711 -0.30044 35 38 39
2.49161 1.13232 -2.63763 0.0439926 -0.967795 -0.247866 37 39 42
2.47058 1.13411 -2.65072 0.0827395 -0.97281 -0.216321 46 49 54
2.45114 1.13637 -2.75256 0.133641 -0.974994 -0.177558 70 68 92
2.45222 1.13998 -2.77875 0.194918 -0.976938 -0.0871766 108 115 134
2.43085 1.13472 -2.76748 0.0884471 -0.992153 -0.0883743 96 77 73
2.43227 1.13673 -2.7987 0.01504 -0.993882 -0.109419 110 115 103
2.4334 1.13794 -2.82341 0.0266873 -0.995387 -0.0921579 115 121 114
2.43449 1.13926 -2.84772 0.00892112 -0.994253 -0.106688 124 128 131
2.41336 1.14062 -2.85961 0.0722005 -0.982166 -0.173599 107 112 99
2.41274 1.14402 -2.88447 0.0574773 -0.991332 -0.11814 125 127 129
2.42014 1.14738 -2.90296 -0.0150918 -0.98641 -0.163609 131 123 124
2.41055 1.15531 -2.95289 0.0429573 -0.986991 -0.154929 120 103 98
2.40154 1.16014 -2.96825 0.0225143 -0.970763 -0.238981 126 123 131
2.40895 1.16194 -2.96931 -0.015925 -0.962959 -0.269179 128 127 135
2.38708 1.16094 -2.9817 -0.0476682 -0.95586 -0.289929 130 136 149
2.38297 1.17232 -3.04085 0.102481 -0.986435 -0.128232 127 134 136
2.37402 1.31181 -3.38088 0.125014 -0.979695 0.156744 129 133 100
3.14015 1.57046 -1.37414 0.223468 -0.963338 -0.148468 122 124 96
3.14001 1.57039 -1.37315 0.224039 -0.963186 -0.148589 122 124 96
2.57007 1.03974 -2.01716 0.0628622 -0.981851 0.178932 107 76 50
2.5695 1.03305 -2.06138 0.0375557 -0.985148 0.16755 103 81 65
2.47244 1.03661 -2.35477 -0.0173205 -0.981143 -0.192508 120 122 129
2.47073 1.03065 -2.37078 -0.128845 -0.87372 -0.469055 121 124 133
2.47133 1.0415 -2.38962 -0.0365229 -0.905155 -0.42351 134 138 150
2.48871 1.14975 -2.52816 -0.445248 -0.31963 0.836415 40 41 45
2.48637 1.15409 -2.54086 -0.535491 -0.749803 0.388644 40 42 45
2.48888 1.15513 -2.54165 -0.533116 -0.542984 0.64881 40 42 45
2.46518 1.12383 -2.54285 -0.529855 -0.830447 0.172083 42 44 46
2.4679 1.12973 -2.62297 0.0327429 -0.960648 -0.275832 35 37 40
2.44681 1.12579 -2.61137 0.0241481 -0.953514 -0.300379 35 37 39
2.45053 1.12999 -2.63955 0.0304479 -0.954036 -0.298142 37 39 42
2.44883 1.14211 -2.65791 -0.0245084 -0.936444 0.349961 70 73 80
2.44846 1.12989 -2.68306 -0.151284 -0.982116 -0.112079 139 144 159
2.41291 1.13586 -2.81016 0.0160572 -0.996462 -0.0824988 112 116 101
2.39196 1.13561 -2.81943 -0.0222341 -0.998477 -0.0504926 125 119 108
2.39006 1.13924 -2.84502 0.0436411 -0.995952 -0.0785831 118 118 107
2.39003 1.14307 -2.86851 0.0213001 -0.987067 -0.15889 102 105 90
2.3866 1.15127 -2.91342 0.0132723 -0.975091 -0.221407 115 90 63
2.38662 1.1465 -2.89267 -0.0266774 -0.981297 -0.19064 118 113 100
2.38651 1.15376 -2.93804 0.0870669 -0.992476 -0.0860872 122 102 93
2.36439 1.15536 -2.94879 0.0159069 -0.995793 -0.0902358 128 122 130
2.38516 1.15762 -2.95959 -0.0415372 -0.973943 -0.222958 128 123 130
2.38049 1.15993 -2.95679 -0.0533011 -0.973384 -0.222898 127 124 133
2.36263 1.15987 -2.96929 0.0235551 -0.995425 -0.0926027 125 129 142
2.36202 1.16788 -3.02684 0.11884 -0.992782 -0.0161397 129 137 145
2.41795 1.3372 -3.23935 0.230944 -0.968279 0.0954005 127 129 99
2.40106 1.32837 -3.23551 0.229583 -0.968757 0.0938157 123 126 96
2.39205 1.30781 -3.28327 -0.0916347 -0.584423 0.806259 132 135 104
2.35182 1.30207 -3.39897 0.492512 -0.868987 0.0478937 125 128 95
2.55096 1.03581 -2.02767 0.0906744 -0.976023 0.197884 118 103 88
2.54838 1.03349 -2.05103 0.0903422 -0.988803 0.118773 117 104 84
2.45334 1.02208 -2.31563 0.11158 -0.972343 -0.20518 131 123 126
2.45531 1.02581 -2.32796 0.0140055 -0.883301 -0.468596 137 136 142
2.43635 1.03319 -2.35231 -0.0932412 -0.953856 -0.28542 120 120 123
2.45503 1.03485 -2.36135 -0.0635338 -0.967724 -0.243872 120 121 130
2.43825 1.04129 -2.37712 -0.0294343 -0.981074 -0.191384 133 137 149
2.45166 1.03763 -2.38107 -0.0880355 -0.885944 -0.455361 132 137 148
2.45172 1.0475 -2.39982 -0.0649588 -0.889629 -0.45204 111 115 123
2.47559 1.13871 -2.52828 -0.459577 -0.828115 0.32096 41 42 45
2.44712 1.11428 -2.57739 -0.429188 -0.892986 0.135552 42 44 47
2.4299 1.12954 -2.62672 0.00482571 -0.942608 -0.333867 36 37 40
2.43089 1.12586 -2.62875 -0.0257616 -0.916225 -0.399835 36 38 40
2.42879 1.1339 -2.64892 0.0472507 -0.956053 -0.289363 49 50 55
2.42814 1.13925 -2.6712 -0.00247732 -0.996446 -0.0841992 121 121 133
2.43096 1.14081 -2.67302 0.0635032 -0.955229 0.288972 116 118 131
2.40701 1.13777 -2.68284 0.00828522 -0.986977 0.160648 115 97 105
2.39701 1.13633 -2.71772 0.0454831 -0.950553 -0.307213 122 64 48
2.39738 1.1376 -2.74231 0.0752232 -0.99697 -0.019786 123 86 77
2.39316 1.13019 -2.76235 0.118502 -0.990046 -0.0759336 98 57 46
2.39251 1.13554 -2.79655 0.0254627 -0.997913 -0.0593458 105 80 65
2.36745 1.13503 -2.80803 0.0304684 -0.996261 -0.0808442 96 46 38
2.36867 1.13723 -2.83266 0.0473245 -0.990655 -0.127922 109 81 65
2.36505 1.15204 -2.92598 0.0168131 -0.995268 -0.0957074 115 90 69
2.34244 1.15722 -2.95936 0.0333428 -0.99433 -0.100973 124 127 139
2.33874 1.16433 -2.97503 -0.0529583 -0.975147 -0.215138 132 138 153
2.36538 1.32344 -3.23667 0.206044 -0.973805 0.0961789 120 123 92
2.37675 1.3161 -3.25673 -0.273885 -0.934599 0.22696 127 132 102
2.36038 1.33218 -3.27446 -0.320198 -0.800844 0.506086 126 130 99
2.37056 1.31701 -3.27556 -0.105015 -0.715262 0.690921 131 136 103
2.36319 1.31827 -3.25631 0.246674 -0.964155 0.0977541 121 124 94
2.379 1.32758 -3.27842 -0.329249 -0.478931 0.813769 129 134 102
2.36001 1.32027 -3.29274 -0.10301 -0.521302 0.847133 130 134 101
2.24521 1.30854 -3.63314 0.238735 -0.949423 0.203964 123 128 96
3.08844 1.55938 -1.34362 0.134014 -0.96109 -0.24155 127 132 101
2.67538 1.13581 -1.73369 0.492016 -0.805619 0.329998 26 27 31
2.66534 1.1389 -1.76221 -0.375834 -0.829589 0.412953 48 50 50
2.68779 1.15858 -1.79092 0.0101571 -0.968949 0.247053 34 37 41
2.67217 1.15439 -1.83113 -0.288106 -0.822799 0.489895 41 43 46
2.64278 1.13475 -1.83724 -0.153696 -0.870518 0.467522 31 34 36
2.42044 1.03187 -2.32841 -0.0879023 -0.983555 -0.157772 114 100 90
2.43127 1.04427 -2.38818 -0.0876728 -0.90694 -0.412036 130 134 146
2.43148 1.04435 -2.38818 -0.104293 -0.903346 -0.416039 129 134 146
2.4113 1.05134 -2.39759 -0.11319 -0.897778 -0.425656 86 90 96
2.43149 1.06655 -2.42378 -0.112203 -0.855088 -0.506197 37 39 42
2.40632 1.12151 -2.62033 -0.142159 -0.935309 -0.324019 35 37 39
2.40967 1.13899 -2.66071 -0.0472543 -0.982586 -0.179698 117 112 119
2.41104 1.1391 -2.65806 -0.119712 -0.910928 -0.394817 108 103 110
2.3858 1.13605 -2.67058 0.0958948 -0.906632 0.410879 108 90 96
2.36509 1.13511 -2.78465 -0.0256746 -0.997017 -0.0727924 99 38 36
2.34646 1.13482 -2.82035 0.0175427 -0.996177 -0.0855787 95 35 34
2.34613 1.13835 -2.84562 0.0623577 -0.990117 -0.125617 91 45 36
2.34666 1.1411 -2.87066 0.057617 -0.995301 -0.0778234 117 95 80
2.33309 1.14871 -2.8842 -0.0711757 -0.961213 -0.266465 111 89 58
2.34268 1.15197 -2.9111 -0.0318264 -0.985235 -0.168223 118 90 64
2.32098 1.15271 -2.92329 0.0267224 -0.995266 -0.0934451 129 113 106
2.34202 1.15527 -2.93398 0.0141186 -0.994809 -0.100777 127 117 120
2.32026 1.15626 -2.94565 0.0517988 -0.991812 -0.116732 125 124 136
2.33748 1.1609 -2.95379 -0.00806555 -0.964716 -0.263171 125 128 140
2.31606 1.16172 -2.96496 0.0677496 -0.989536 -0.127394 128 133 148
2.31241 1.16701 -2.98417 0.0613759 -0.991429 -0.115337 126 132 148
2.32169 1.16586 -3.01248 0.00707354 -0.994827 -0.101335 124 132 144
2.34312 1.31192 -3.2047 0.154486 -0.982874 0.100463 107 109 78
2.35466 1.32741 -3.22292 0.240354 -0.966083 0.0944078 114 117 87
2.35671 1.32234 -3.20565 0.158889 -0.984035 0.0801813 108 110 81
2.35115 1.34542 -3.24592 0.104561 -0.992122 0.0689923 127 129 96
2.35704 1.33491 -3.2405 0.173256 -0.980287 0.0949679 121 124 93
2.32908 1.32739 -3.27263 0.204898 -0.960607 -0.187752 126 129 98
2.25809 1.35129 -3.61123 0.452078 -0.872551 0.185148 123 127 94
2.25375 1.33996 -3.59602 0.405172 -0.885524 0.22734 125 129 95
2.22192 1.35921 -3.72427 0.257325 -0.95865 -0.121545 122 126 94
2.21552 1.34527 -3.72806 0.186631 -0.982194 0.0215356 122 126 94
2.21355 1.33976 -3.74585 0.201148 -0.978275 0.0501812 117 122 90
2.19868 1.3399 -3.73776 0.197243 -0.97998 0.027088 122 126 93
2.67698 1.15996 -1.71291 0.325431 -0.905362 0.272792 27 29 31
2.67386 1.14248 -1.71291 -0.00358611 -0.908215 0.41849 29 30 33
2.64879 1.14143 -1.77521 -0.387535 -0.807679 0.444377 47 49 48
2.66317 1.1605 -1.80461 -0.0775532 -0.949427 0.304259 33 36 39
2.6124 1.11054 -1.8405 0.394498 -0.905931 -0.153823 22 24 27
2.45405 1.02372 -2.13038 -0.179519 -0.983692 0.0110915 103 33 34
2.4549 1.02448 -2.15116 -0.164428 -0.982228 -0.0905043 107 40 38
2.41736 1.02611 -2.29564 -0.051028 -0.932686 -0.357062 118 87 85
2.39839 1.01852 -2.29537 -0.0147973 -0.980951 -0.193692 105 45 47
2.39795 1.02811 -2.31633 -0.142952 -0.952372 -0.269354 101 70 65
2.41464 1.0387 -2.34391 -0.100871 -0.981616 -0.162032 119 112 107
2.41152 1.04277 -2.37267 -0.0695699 -0.959063 -0.274515 132 135 147
2.39118 1.04845 -2.38582 -0.110178 -0.898422 -0.425087 115 120 130
2.35344 1.13829 -2.74255 -0.117106 -0.985952 -0.119101 114 96 85
2.33373 1.13909 -2.77519 -0.140815 -0.988911 -0.0471797 100 42 34
2.34388 1.13549 -2.7969 -0.0200522 -0.998271 -0.0552435 99 38 35
2.32416 1.13854 -2.85841 0.0770685 -0.990216 -0.116332 93 46 36
2.3137 1.14811 -2.87241 -0.0757595 -0.965585 -0.248808 114 85 58
2.3207 1.14896 -2.90043 -0.00540158 -0.981881 -0.189423 114 86 52
2.30124 1.1514 -2.91094 0.00368485 -0.997166 -0.0751402 115 91 62
2.29938 1.15345 -2.93542 0.00395766 -0.997496 -0.0706131 129 124 128
2.30391 1.16532 -2.96353 0.0728827 -0.989021 -0.128556 130 136 151
2.29734 1.16227 -2.9554 -0.0236149 -0.961869 -0.27249 127 133 147
2.28591 1.165 -2.99641 -0.0963155 -0.989764 -0.105309 125 132 147
2.29616 1.17345 -3.01802 -0.0445403 -0.996701 -0.0678488 123 130 139
2.33169 1.33253 -3.22515 0.0507712 -0.998698 0.00503302 113 117 87
2.32938 1.34519 -3.25314 0.070071 -0.997351 0.019537 123 126 95
2.33454 1.33612 -3.24571 0.104908 -0.99116 0.0812134 120 123 93
2.30731 1.31514 -3.2406 0.137154 -0.985937 -0.0954802 112 115 86
2.32726 1.34581 -3.2541 0.061113 -0.998 0.0161923 122 125 93
2.31011 1.31792 -3.23819 0.148641 -0.982763 -0.109925 112 115 86
2.31486 1.33447 -3.27866 0.133207 -0.986563 -0.0946031 124 127 96
2.3168 1.33005 -3.28548 0.0709416 -0.99748 6.04987e-006 125 129 99
2.31226 1.32512 -3.26318 0.00658166 -0.998218 0.0593027 121 125 94
2.30149 1.31804 -3.31778 -0.358562 -0.766244 0.533202 130 134 100
2.20472 1.30493 -3.61737 0.390162 -0.904637 0.171481 128 132 100
2.12692 1.14154 -3.51786 -0.211557 0.253227 0.943992 130 136 109
2.18291 1.34102 -3.73229 0.189181 -0.981942 0.000735343 122 127 94
2.18128 1.33671 -3.75037 0.202887 -0.979144 -0.0106528 117 122 88
2.8554 1.34965 -1.50625 -0.278333 -0.771479 0.572146 90 89 66
2.61024 1.11294 -1.73941 -0.158395 -0.913194 0.375484 38 40 41
2.59098 1.08916 -1.79861 -0.171385 -0.864232 0.473001 32 35 35
2.43895 1.03105 -2.12218 -0.178734 -0.948172 0.262726 102 37 37
2.41708 1.02951 -2.17986 -0.142312 -0.97566 -0.16684 102 32 33
2.39472 1.02098 -2.28008 -0.0429052 -0.99747 -0.0566796 102 35 38
2.39153 1.04156 -2.35606 -0.0836178 -0.968331 -0.235249 123 123 129
2.38653 1.0423 -2.35429 -0.07672 -0.961702 -0.263143 122 122 128
2.39156 1.0414 -2.35683 -0.0550287 -0.971079 -0.232332 124 124 130
2.37008 1.04589 -2.37381 -0.119754 -0.913754 -0.388217 128 132 142
2.36924 1.04653 -2.37293 -0.141754 -0.893825 -0.42542 128 131 142
2.37598 1.09542 -2.45012 -0.350115 -0.806184 -0.476956 40 41 43
2.36088 1.12828 -2.62389 -0.17568 -0.853087 -0.491304 36 37 39
2.36083 1.14295 -2.66643 -0.0796404 -0.985974 -0.14667 116 78 77
2.32667 1.12795 -2.68336 -0.104162 -0.99014 -0.093661 109 54 44
2.34986 1.13553 -2.69794 -0.125064 -0.986289 -0.107673 102 60 54
2.33213 1.13695 -2.7309 -0.0575887 -0.995545 -0.0746604 101 103 94
2.31176 1.13464 -2.76282 -0.0378591 -0.997252 -0.0636757 109 63 44
2.29141 1.14499 -2.85972 -0.0123982 -0.982381 -0.186477 103 68 47
2.29324 1.14736 -2.88526 -0.0193378 -0.99569 -0.0907085 114 83 52
2.28059 1.15755 -2.92522 -0.128505 -0.95305 -0.274195 120 112 108
2.28045 1.15895 -2.94933 -0.104274 -0.950672 -0.292146 128 131 144
2.28046 1.16596 -2.96578 -0.0202336 -0.961245 -0.274951 129 136 152
2.26778 1.16569 -2.98393 -0.139029 -0.980928 -0.135833 124 132 149
2.2683 1.17174 -3.00669 -0.071404 -0.986323 -0.148557 126 133 145
2.27582 1.17081 -2.9969 0.017106 -0.94907 -0.314599 125 131 145
2.27582 1.17081 -2.9969 0.017106 -0.94907 -0.314599 125 131 145
2.31211 1.33645 -3.22834 -0.0200114 -0.99905 0.0387135 113 117 85
2.31371 1.33792 -3.25295 0.0147195 -0.998418 0.0542699 121 124 93
2.30909 1.32275 -3.23324 0.0594884 -0.998226 -0.0022862 111 114 85
2.27902 1.3301 -3.26313 0.0191827 -0.998289 0.055235 119 123 92
2.29849 1.32899 -3.27588 0.0328471 -0.998677 0.0395643 123 126 96
2.27772 1.33163 -3.28134 0.00789081 -0.998418 0.055676 122 125 95
2.27537 1.32078 -3.25651 0.00784075 -0.998076 0.0614974 118 121 89
2.29568 1.33343 -3.28989 0.0880765 -0.994359 -0.0591036 127 130 98
2.27629 1.31637 -3.28268 0.0976372 -0.994732 -0.0312338 123 126 96
2.26133 1.31949 -3.31146 0.0116262 -0.999791 -0.0168331 124 128 97
2.27271 1.3123 -3.30752 -0.0111194 -0.999473 0.0305017 124 127 97
2.26624 1.32331 -3.31167 -0.00369556 -0.998522 0.0542226 124 129 98
2.1137 1.17547 -3.54787 -0.365533 0.0442539 0.929746 132 137 111
2.08741 1.13578 -3.50227 -0.497126 0.00468767 0.867666 131 136 108
2.18301 1.35339 -3.69389 -0.107261 -0.978913 -0.17385 126 131 98
2.72107 1.18848 -1.52413 -0.0548355 -0.995293 0.0799119 130 135 123
2.63528 1.14259 -1.70869 -0.215285 -0.947382 0.236896 28 30 32
2.61104 1.12074 -1.70473 -0.231222 -0.755588 0.61288 38 41 44
2.6051 1.12256 -1.71626 -0.172961 -0.877834 0.446645 35 38 40
2.58611 1.11003 -1.75341 -0.16351 -0.889535 0.426605 30 32 34
2.58421 1.09814 -1.77652 -0.248714 -0.853111 0.458632 32 34 35
2.37934 1.03804 -2.31511 -0.0768241 -0.98288 -0.167464 127 110 100
2.37041 1.03945 -2.3428 -0.142489 -0.957658 -0.250176 114 112 112
2.3662 1.03949 -2.34263 -0.185186 -0.931016 -0.314508 114 113 112
2.36757 1.03833 -2.34645 -0.16005 -0.920639 -0.3561 114 114 115
2.35167 1.0443 -2.36284 -0.213423 -0.912928 -0.34787 129 133 143
2.35046 1.05413 -2.38409 -0.209692 -0.871321 -0.443655 81 85 92
2.35045 1.04349 -2.364 -0.19023 -0.875956 -0.443298 128 131 141
2.33681 1.12039 -2.60406 -0.185501 -0.849459 -0.493973 33 35 37
2.34179 1.12672 -2.61208 -0.143908 -0.904252 -0.402018 34 35 37
2.3409 1.1356 -2.63008 -0.109166 -0.928278 -0.355503 46 42 45
2.3391 1.14566 -2.64568 -0.171113 -0.931052 -0.322276 109 88 91
2.31097 1.13713 -2.6753 -0.143662 -0.988596 -0.0451634 119 65 53
2.30942 1.13324 -2.67363 -0.0563205 -0.99784 0.0338179 114 59 48
2.31024 1.13749 -2.69741 -0.078761 -0.99311 -0.0867669 107 81 84
2.28887 1.1448 -2.82865 -0.101647 -0.98055 -0.167897 95 41 38
2.26924 1.14659 -2.8412 -0.00140418 -0.987491 -0.15767 99 58 43
2.27164 1.14709 -2.87157 0.00895759 -0.996542 -0.082604 109 82 50
2.2652 1.15524 -2.89739 -0.0559264 -0.995546 -0.0759011 116 96 77
2.26413 1.15855 -2.9156 -0.155133 -0.945938 -0.284844 128 119 119
2.26226 1.15977 -2.9332 -0.174175 -0.946159 -0.272847 123 124 133
2.26362 1.16414 -2.95703 -0.200166 -0.925123 -0.322616 128 136 151
2.27916 1.32506 -3.23057 -0.00175866 -0.997805 0.0662017 112 115 84
2.27923 1.323 -3.23165 0.0867282 -0.990246 0.109044 112 115 84
2.25354 1.29845 -3.23782 0.121187 -0.977059 0.175129 117 121 86
2.25354 1.29845 -3.23782 0.121187 -0.977059 0.175129 117 121 86
2.25354 1.29845 -3.23782 0.121187 -0.977059 0.175129 117 121 86
2.24445 1.32262 -3.29911 -0.0488251 -0.990352 0.129688 122 127 96
2.08397 1.17489 -3.55589 -0.322928 0.0155459 0.946296 131 137 110
2.05349 1.12813 -3.54321 -0.772425 0.152648 0.616489 128 133 103
2.0256 1.11457 -3.56366 -0.376051 -0.532333 0.758424 130 136 103
2.03505 1.09306 -3.53195 -0.47064 0.0598864 0.880291 125 130 97
2.04551 1.12085 -3.55545 -0.0513795 -0.416971 0.907467 128 133 102
2.92293 1.51749 -1.46598 -0.163995 -0.982026 0.0934381 120 121 87
2.71448 1.23234 -1.56914 0.349049 -0.923728 0.157768 126 132 141
2.61723 1.14968 -1.66243 -0.108891 -0.871529 0.4781 25 27 31
2.60672 1.15385 -1.69465 -0.0791774 -0.692975 0.7166 25 28 30
2.59329 1.14019 -1.70057 -0.0859506 -0.607485 0.789667 18 20 24
2.58632 1.12154 -1.72959 -0.164349 -0.889429 0.426504 28 32 34
2.34977 1.02222 -2.23552 -0.00618955 -0.98524 -0.171067 95 37 38
2.35562 1.0363 -2.26191 -0.165302 -0.975412 -0.145766 116 80 76
2.34731 1.03648 -2.3336 -0.130175 -0.924269 -0.35886 114 111 109
2.3321 1.04275 -2.34667 -0.164642 -0.934481 -0.315656 118 119 124
2.33077 1.05313 -2.3721 -0.254899 -0.860537 -0.441025 105 110 120
2.33272 1.06449 -2.39089 -0.247804 -0.808308 -0.534071 39 41 43
2.31645 1.12152 -2.59311 -0.250478 -0.820936 -0.513152 34 36 37
2.32021 1.13491 -2.61796 -0.099827 -0.960783 -0.25871 39 39 41
2.31976 1.14021 -2.64107 -0.0446657 -0.992012 -0.117974 113 98 102
2.3097 1.13459 -2.65192 0.0490499 -0.983288 0.175324 101 67 68
2.25898 1.14702 -2.79913 -0.00425717 -0.984638 -0.174556 101 30 36
2.24924 1.14322 -2.83231 0.0288455 -0.97609 -0.215444 88 41 31
2.24843 1.14827 -2.85368 -0.0833059 -0.979725 -0.182207 110 78 51
2.24124 1.15342 -2.9052 -0.113611 -0.983242 -0.142576 127 119 119
2.24582 1.16144 -2.92383 -0.199353 -0.941964 -0.270114 125 127 139
2.22246 1.16256 -2.9416 -0.0430275 -0.930098 -0.364783 125 132 147
2.2244 1.31689 -3.24284 0.0692994 -0.995627 0.0626431 114 117 86
2.03102 1.14324 -3.56719 -0.627501 -0.0699792 0.775465 133 138 107
2.01325 1.13349 -3.58443 -0.360641 -0.587591 0.724344 131 136 104
2.01868 1.15633 -3.58959 -0.37249 -0.625995 0.685114 129 135 107
2.98628 1.4818 -1.12634 -0.308043 -0.761117 0.570798 121 126 94
2.89836 1.51456 -1.46779 0.0122443 -0.997001 0.0764113 113 115 78
2.66601 1.21422 -1.59191 0.282881 -0.94842 0.143104 133 143 162
2.60147 1.15292 -1.68297 -0.235326 -0.730611 0.640959 24 27 30
2.35285 1.03599 -2.18142 -0.17302 -0.896973 -0.406823 110 28 37
2.33238 1.04032 -2.31397 -0.163557 -0.971778 -0.169988 117 114 113
2.31344 1.04469 -2.33183 -0.2286 -0.928087 -0.293933 109 109 111
2.31214 1.05278 -2.3592 -0.246071 -0.870944 -0.42533 120 125 135
2.29997 1.13437 -2.60558 -0.17239 -0.96047 -0.218586 36 36 38
2.27986 1.13672 -2.65932 -0.0161448 -0.975483 -0.219482 108 61 56
2.23962 1.14898 -2.80804 -0.0279761 -0.99313 -0.113623 96 51 44
2.22117 1.15448 -2.84092 -0.174109 -0.976858 -0.124239 115 91 62
2.22081 1.15649 -2.86286 -0.169701 -0.975681 -0.138738 115 84 55
2.20328 1.16622 -2.91387 -0.0697916 -0.94248 -0.326896 120 123 137
2.2173 1.16016 -2.90667 -0.147678 -0.953314 -0.263409 127 126 136
2.22189 1.15845 -2.91442 -0.163576 -0.951315 -0.261233 124 126 138
2.21368 1.16458 -2.92733 -0.0166964 -0.953334 -0.301455 122 128 142
2.19677 1.1714 -2.99997 -0.22745 -0.927686 -0.296084 123 129 140
2.22576 1.33157 -3.25037 -0.0935474 -0.986924 0.131263 114 118 87
2.20879 1.33467 -3.25908 -0.0563307 -0.989089 0.136122 118 122 92
2.20303 1.33852 -3.2845 -0.149476 -0.964981 0.215564 125 129 92
2.21539 1.34716 -3.29575 -0.228738 -0.934575 0.272484 124 129 96
1.99921 1.15119 -3.59971 -0.0781138 -0.869858 0.487078 132 138 107
1.97563 1.15199 -3.60059 -0.40701 -0.638801 0.652898 129 135 105
1.97607 1.14376 -3.6245 -0.178699 -0.535816 0.825208 130 137 102
1.95116 1.12486 -3.63255 -0.563547 -0.274939 0.778989 129 135 100
2.02604 1.30152 -3.80724 -0.384813 -0.907035 0.170897 125 132 94
2.87619 1.52468 -1.45337 0.391343 -0.919327 0.0410852 115 116 82
2.58773 1.1595 -1.67572 -0.253464 -0.788871 0.559855 25 29 31
2.57429 1.15706 -1.68606 -0.227055 -0.689158 0.688119 17 19 24
2.29407 1.06232 -2.36652 -0.289805 -0.858279 -0.423521 63 66 72
2.28024 1.13464 -2.59303 -0.227738 -0.92815 -0.294403 35 36 37
2.28008 1.14125 -2.61493 -0.0975855 -0.993043 0.0658951 72 73 79
2.25775 1.1412 -2.66763 -0.0902383 -0.990433 0.104406 101 59 50
2.20191 1.15597 -2.82909 -0.151992 -0.983241 -0.100678 109 94 68
2.19616 1.15439 -2.84437 -0.172561 -0.978447 -0.113424 111 86 55
2.19802 1.15881 -2.86706 -0.190497 -0.971811 -0.138903 113 84 59
2.1951 1.16075 -2.8873 -0.203859 -0.96654 -0.155696 127 118 119
2.18694 1.16667 -2.90275 -0.171843 -0.94183 -0.288837 120 122 135
2.1838 1.17258 -2.92385 0.0631091 -0.932884 -0.354604 125 131 146
2.17711 1.17772 -2.9732 -0.1006 -0.932199 -0.347686 123 130 144
2.20571 1.33478 -3.23937 -0.0365117 -0.992653 0.115356 113 117 86
2.19197 1.33739 -3.26737 -0.0323862 -0.992041 0.121678 122 125 93
2.17424 1.3261 -3.23955 -0.0164845 -0.996652 0.0800814 113 116 84
2.18707 1.3358 -3.24936 -0.0102495 -0.997374 0.0716949 117 120 87
2.18538 1.33471 -3.27235 0.0408251 -0.998043 -0.0473653 122 126 95
2.16655 1.33298 -3.28396 0.0386479 -0.998201 -0.0458378 121 124 95
1.95841 1.16238 -3.62281 -0.352275 -0.861989 0.364524 132 138 106
1.95756 1.15019 -3.64295 -0.496016 -0.52197 0.693913 130 136 103
1.94136 1.14637 -3.65367 -0.766071 -0.562867 0.310348 131 137 102
1.93333 1.15725 -3.69215 -0.516816 -0.833102 0.197087 130 136 100
2.87595 1.52593 -1.39152 0.167609 -0.826404 0.537553 112 116 81
2.85126 1.50715 -1.4642 0.241676 -0.91799 -0.314462 113 115 81
2.30363 1.04563 -2.271 -0.174072 -0.969038 -0.175111 115 110 111
2.27908 1.04628 -2.34228 -0.255365 -0.796998 -0.547342 122 126 138
2.27373 1.05706 -2.33069 -0.290239 -0.939166 -0.183656 125 132 146
2.2777 1.07243 -2.37052 -0.3606 -0.779778 -0.511775 35 38 40
2.27552 1.08664 -2.37877 -0.409029 -0.72958 -0.548095 33 35 37
2.25959 1.11946 -2.5599 -0.403808 -0.751224 -0.522113 34 35 37
2.26075 1.13099 -2.58007 -0.277143 -0.873895 -0.399374 35 35 37
2.2445 1.14525 -2.59206 -0.0964947 -0.995255 0.0125049 52 54 58
2.23913 1.14333 -2.65648 -0.0778528 -0.99606 0.0424606 113 94 101
2.21927 1.1473 -2.68707 0.00286981 -0.99545 -0.0952384 102 80 80
2.18389 1.15788 -2.81805 -0.14922 -0.983185 -0.105265 111 99 76
2.17531 1.16267 -2.87513 -0.227744 -0.961843 -0.151625 121 105 98
2.179 1.16114 -2.85528 -0.227034 -0.961694 -0.153626 115 84 57
2.17407 1.16545 -2.89618 -0.240399 -0.947564 -0.210551 122 123 136
2.17317 1.16668 -2.89111 -0.159148 -0.934819 -0.317466 124 122 133
2.17203 1.17215 -2.91066 0.00948587 -0.928436 -0.371372 120 125 139
2.16527 1.17594 -2.93387 -0.246609 -0.939739 -0.236801 123 131 148
2.17447 1.34137 -3.25458 0.00576478 -0.998858 0.0474372 119 123 89
1.95659 1.16633 -3.59474 -0.469272 -0.557219 0.685048 130 136 108
1.93849 1.17005 -3.63955 -0.478323 -0.84179 0.250194 134 140 107
1.91176 1.16091 -3.70331 -0.421018 -0.856865 0.297536 129 136 101
1.904 1.19631 -3.76668 0.0315056 -0.921568 0.386937 127 132 98
1.88709 1.17344 -3.75418 0.00073719 -0.67166 0.74086 124 129 96
2.33284 1.04064 -2.0987 -0.174948 -0.969562 0.171296 127 105 98
2.32564 1.0364 -2.1046 -0.158513 -0.986483 0.0415311 131 117 110
2.31813 1.03637 -2.13014 -0.122936 -0.977185 -0.173196 108 87 83
2.31218 1.04597 -2.13948 -0.196766 -0.979179 0.0499161 124 108 108
2.25687 1.06436 -2.33973 -0.314028 -0.923264 -0.221291 107 112 123
2.26019 1.09792 -2.38243 -0.333191 -0.793004 -0.510028 34 36 39
2.24336 1.13666 -2.56918 -0.216007 -0.942849 -0.253726 35 35 38
2.22883 1.12822 -2.55863 -0.293511 -0.823718 -0.485119 33 35 36
2.21685 1.13635 -2.64316 0.140492 -0.976996 -0.160439 110 106 111
2.16109 1.16804 -2.84967 -0.217611 -0.962533 -0.161792 113 80 52
2.15209 1.1658 -2.88291 -0.228004 -0.965948 -0.122304 125 122 131
2.13782 1.1782 -2.9061 -0.279566 -0.922721 -0.265383 119 126 142
2.15557 1.17395 -2.89967 -0.300234 -0.9072 -0.294698 118 123 137
2.14226 1.18798 -2.96352 -0.464729 -0.87332 -0.146079 122 130 144
2.14465 1.3467 -3.23516 -0.00573176 -0.77341 0.63388 112 119 87
1.91361 1.20375 -3.65289 -0.899689 -0.156979 0.407329 135 142 111
1.89192 1.17995 -3.6941 -0.587941 -0.651858 0.478965 132 138 105
1.89803 1.18576 -3.73056 -0.238506 -0.93456 0.264032 130 136 101
1.86771 1.1685 -3.76565 -0.191529 -0.611324 0.767854 125 131 95
2.30467 1.05032 -2.10478 -0.194761 -0.97383 0.117149 124 126 133
2.30492 1.04819 -2.12383 -0.19977 -0.97468 0.100452 123 121 126
2.24111 1.06946 -2.35102 -0.093352 -0.845659 -0.525496 49 51 52
2.20799 1.07237 -2.42082 -0.791679 -0.531354 -0.301508 35 37 38
2.2127 1.14173 -2.53963 -0.0874384 -0.975063 -0.203976 35 36 38
2.22804 1.13527 -2.53208 0.015926 -0.953512 -0.300935 33 35 36
2.22421 1.13786 -2.55729 -0.201334 -0.951622 -0.232121 34 35 37
2.22099 1.13847 -2.56988 -0.119056 -0.988818 -0.0898042 36 38 42
2.18127 1.15123 -2.67666 -0.0627404 -0.997222 0.0401419 87 68 64
2.18083 1.1507 -2.69738 -0.0578015 -0.997838 0.0312795 124 119 125
2.18279 1.15316 -2.69854 -0.106199 -0.976062 -0.189803 125 124 131
2.18276 1.15303 -2.69813 -0.108665 -0.975836 -0.189567 125 124 131
2.1819 1.15323 -2.71944 -0.0950971 -0.987456 -0.126046 127 129 136
2.18188 1.15319 -2.71904 -0.0958795 -0.987458 -0.125433 127 129 136
2.14561 1.16016 -2.77365 -0.115694 -0.976982 -0.179222 123 125 139
2.14494 1.16159 -2.79593 -0.131804 -0.9806 -0.145088 118 107 105
2.1376 1.16949 -2.81945 0.03608 -0.996097 -0.0805568 105 74 41
2.14541 1.16721 -2.81773 -0.206812 -0.959661 -0.190469 109 79 48
2.12287 1.17821 -2.87815 -0.261376 -0.919194 -0.294559 117 119 132
2.12062 1.1787 -2.89533 -0.284806 -0.904665 -0.316965 111 117 131
2.13964 1.17659 -2.88905 -0.297501 -0.90697 -0.29816 117 120 133
2.1215 1.18914 -2.91425 -0.200639 -0.961738 -0.186561 120 128 144
2.12102 1.36147 -3.22655 -0.0734211 -0.548968 0.832613 114 117 80
2.12429 1.33678 -3.23266 -0.376374 -0.925315 0.0461988 114 118 82
2.08139 1.32311 -3.27166 0.146745 -0.9875 -0.0575234 120 123 91
1.89394 1.20285 -3.66576 -0.713738 -0.0386298 0.699346 133 139 110
1.88016 1.17823 -3.6997 -0.369941 -0.539048 0.756684 130 136 103
1.87461 1.17991 -3.71065 -0.619171 -0.626456 0.473477 131 136 103
1.85961 1.20231 -3.72644 -0.724801 -0.309652 0.615451 133 138 106
1.84983 1.17875 -3.74317 -0.623689 -0.527512 0.576839 127 132 98
2.52321 1.18314 -1.61332 0.0404087 -0.939512 -0.340125 79 86 98
2.31138 1.05585 -2.05116 -0.200087 -0.972111 0.122333 126 125 131
2.21368 1.07753 -2.39014 -0.410794 -0.902573 -0.12888 35 37 38
2.20161 1.07862 -2.43609 -0.799707 -0.533583 -0.275242 35 37 37
2.18668 1.08334 -2.46196 -0.852561 -0.424527 -0.304822 35 37 38
2.20915 1.13509 -2.51991 0.00327429 -0.960158 -0.279437 33 34 34
2.19377 1.14067 -2.5296 -0.0898547 -0.977598 -0.190337 35 36 37
2.19502 1.14367 -2.55475 -0.148038 -0.95647 -0.251494 36 38 40
2.1813 1.14396 -2.62005 -0.131009 -0.991105 -0.023397 51 43 39
2.16938 1.15142 -2.63646 -0.0445353 -0.994673 -0.0929687 87 55 40
2.16265 1.15329 -2.68655 -0.193609 -0.980768 -0.0246855 94 89 97
2.14595 1.15682 -2.75109 -0.0673743 -0.964871 -0.253938 125 130 144
2.12688 1.16348 -2.76285 -0.130863 -0.97937 -0.153981 123 126 142
2.1271 1.16284 -2.764 -0.193334 -0.965459 -0.174675 123 126 143
2.12567 1.16341 -2.78441 -0.120533 -0.975724 -0.182851 120 115 123
2.12555 1.16739 -2.80704 -0.172185 -0.976161 -0.132143 105 83 62
2.10484 1.1801 -2.86361 -0.193787 -0.926447 -0.322711 128 128 140
2.12286 1.17159 -2.85057 -0.158635 -0.98207 -0.101855 120 105 103
2.1216 1.17214 -2.85462 -0.176509 -0.976291 -0.125304 123 112 115
2.1036 1.18092 -2.88634 -0.194696 -0.927756 -0.318374 119 124 137
2.10384 1.18857 -2.90366 -0.13948 -0.950597 -0.277329 129 137 151
2.08746 1.19186 -2.93339 -0.264085 -0.906736 -0.328769 101 107 116
2.10384 1.36224 -3.24211 -0.0976365 -0.63674 0.764872 116 119 83
2.09448 1.36318 -3.22352 0.00110629 -0.973546 0.22849 119 122 87
2.08408 1.35565 -3.25183 0.0497692 -0.706577 0.705884 116 119 82
2.06824 1.32575 -3.27711 0.226285 -0.9586 -0.172863 120 123 91
2.05133 1.3314 -3.32789 -0.114195 -0.987915 -0.104799 124 127 92
2.05633 1.32141 -3.31743 -0.00810179 -0.991706 0.128274 122 125 92
1.92743 1.26947 -3.60936 -0.264321 -0.466363 0.84418 134 141 108
1.92136 1.25984 -3.63176 -0.453726 0.0460011 0.889953 134 141 108
1.90833 1.24804 -3.64192 -0.508376 -0.261868 0.820353 132 138 104
1.89835 1.23065 -3.65926 -0.455929 -0.757772 0.466808 135 143 111
1.87721 1.23302 -3.67675 -0.555191 -0.627437 0.545973 136 142 111
1.86498 1.21037 -3.69447 -0.868497 -0.115721 0.481997 135 140 109
1.83465 1.19353 -3.73063 -0.609686 -0.421247 0.671441 130 135 104
1.82246 1.18244 -3.765 -0.451164 -0.52955 0.718351 128 133 97
1.80309 1.17684 -3.77858 -0.593594 0.0626357 0.802324 126 131 96
1.79955 1.1618 -3.75722 -0.186418 -0.601115 0.777116 126 131 95
2.79034 1.55279 -1.40222 -0.128434 -0.942734 -0.307826 115 119 83
2.34667 1.07578 -1.88465 -0.0837447 -0.89093 0.446353 122 129 143
2.16464 1.09904 -2.47804 -0.849223 -0.527309 -0.0276639 35 36 38
2.15948 1.10538 -2.49156 -0.868763 -0.494815 -0.0202405 35 37 39
