ply
format ascii 1.0
element vertex 723
property float x
property float y
property float z
property float nx
property float ny
property float nz
property uchar diffuse_red
property uchar diffuse_green
property uchar diffuse_blue
end_header
0.437751 1.91252 -1.20176 0.378968 -0.917182 -0.123131 205 196 189
0.464396 1.93764 -1.2196 -0.615031 -0.770576 -0.16718 183 180 179
0.483142 1.91764 -1.20405 -0.649794 -0.747729 -0.136635 139 136 142
0.495172 1.90775 -1.2027 -0.781708 -0.526888 0.333648 168 165 171
0.49338 1.91124 -1.20933 -0.830543 -0.556905 -0.00747385 156 153 159
0.493381 1.91125 -1.20933 -0.831036 -0.556161 -0.00802477 156 153 159
0.517419 1.79596 -1.16775 -0.854644 -0.518489 -0.0274295 46 48 51
0.533064 1.8109 -1.17005 0.102161 -0.992 -0.074161 44 46 49
0.529271 1.79594 -1.16764 0.260992 -0.959422 -0.106735 44 47 50
0.818066 1.81113 -1.19119 -0.33748 -0.721526 -0.604572 41 41 42
0.831145 1.80151 -1.17997 -0.0600625 -0.964488 -0.257207 41 42 43
0.847697 1.80643 -1.18219 -0.238825 -0.9631 -0.124104 41 42 45
0.863208 1.80439 -1.18175 -0.128257 -0.989505 -0.0665583 42 42 48
0.893204 1.79973 -1.18476 -0.0767772 -0.93152 -0.355493 43 43 51
0.889688 1.79219 -1.17263 -0.072479 -0.925647 -0.371381 42 42 45
0.907333 1.79393 -1.17871 -0.0750456 -0.871292 -0.484994 43 42 45
0.92106 1.79583 -1.1859 -0.0605957 -0.868538 -0.491905 44 43 51
0.923075 1.79581 -1.18625 -0.0517769 -0.866844 -0.495884 44 44 52
0.923682 1.78906 -1.17256 -0.0407521 -0.867699 -0.495417 43 41 44
0.931605 1.78079 -1.16964 -0.00934693 -0.89038 -0.455122 43 42 44
0.937561 1.7915 -1.17954 0.0253302 -0.869926 -0.492531 44 42 46
0.937537 1.79149 -1.17964 0.02528 -0.869402 -0.493458 44 42 46
0.970949 1.80615 -1.18331 -0.0487503 -0.998531 -0.0236645 46 44 51
0.980608 1.7925 -1.17929 0.00107339 -0.889704 -0.456538 46 42 46
0.981587 1.79225 -1.17741 0.0125705 -0.929777 -0.367909 45 42 46
0.977648 1.80115 -1.19306 -0.0512009 -0.957221 -0.284792 51 46 57
0.978084 1.80129 -1.19414 -0.0439708 -0.9543 -0.295599 51 46 58
0.997214 1.79843 -1.1846 -0.0521581 -0.930033 -0.363757 52 44 48
1.01091 1.79134 -1.17969 -0.0148975 -0.907043 -0.420774 50 42 43
1.01205 1.80127 -1.19316 -0.0707504 -0.976936 -0.201471 68 47 51
1.0278 1.79886 -1.18403 -0.0513273 -0.974751 -0.217315 56 44 44
1.04423 1.80024 -1.19333 -0.0472908 -0.96936 -0.241048 72 47 49
1.0604 1.79722 -1.18445 -0.0391712 -0.969882 -0.240404 60 43 44
1.07668 1.79872 -1.19391 -0.0875641 -0.979865 -0.179437 74 46 50
1.09322 1.79568 -1.18468 -0.101812 -0.974244 -0.201206 60 44 45
1.1098 1.79667 -1.1936 -0.11215 -0.976263 -0.185293 73 46 50
1.14264 1.79389 -1.19297 -0.0465393 -0.971523 -0.232329 72 46 50
1.15855 1.794 -1.20188 -0.0732587 -0.968148 -0.239421 78 47 51
1.17399 1.79217 -1.19181 -0.0843662 -0.957431 -0.276059 71 46 49
1.1895 1.79229 -1.20066 -0.0824404 -0.95523 -0.284147 78 46 50
1.18969 1.79356 -1.20228 -0.0827027 -0.933327 -0.349371 78 46 50
1.2067 1.79116 -1.19438 -0.0600279 -0.961355 -0.268687 73 47 50
1.22327 1.79291 -1.2039 -0.0462971 -0.948212 -0.314246 78 46 50
1.24078 1.79104 -1.19626 -0.0681717 -0.909631 -0.409786 74 47 51
1.24061 1.79114 -1.19558 -0.0659236 -0.90492 -0.420446 73 47 51
1.25573 1.79309 -1.2044 -0.0539519 -0.911591 -0.407542 77 46 50
1.27651 1.79006 -1.1987 -0.0609528 -0.926368 -0.371653 74 47 52
1.29911 1.79632 -1.20983 -0.0578253 -0.877135 -0.47675 76 46 50
1.31711 1.78753 -1.20041 -0.113098 -0.870529 -0.478945 72 47 50
1.33831 1.78217 -1.19083 -0.178877 -0.871986 -0.455679 68 47 51
1.91388 1.58974 -1.15458 -0.115841 -0.970592 0.211024 49 47 47
1.9911 1.38922 -1.06142 -0.573948 -0.599305 0.558048 127 121 116
1.99871 1.37184 -1.06401 -0.754225 -0.177953 0.632042 143 138 135
1.9983 1.33741 -1.04964 -0.951787 0.292708 -0.0917797 153 148 147
1.99848 1.29621 -1.02431 -0.95875 0.254806 -0.12599 159 154 153
1.99271 1.23944 -1.00756 -0.913936 0.187555 0.359922 156 154 152
1.98695 1.18971 -0.982709 -0.992463 0.0130981 -0.121845 163 158 157
1.98471 1.17053 -0.97332 -0.978281 -0.122968 -0.166866 164 161 158
1.98619 1.15069 -0.973294 -0.988037 0.138602 0.067612 163 162 160
1.9828 1.11447 -0.95109 -0.989789 -0.0385052 -0.137245 162 155 153
1.98384 1.09884 -0.949834 -0.996605 -0.0716584 -0.0405453 156 146 141
1.98372 1.09869 -0.949041 -0.999029 -0.0392385 -0.0200487 156 146 141
1.98326 1.08032 -0.942106 -0.986277 -0.0561572 -0.155256 160 152 148
0.46817 2.11814 -1.31069 -0.668077 -0.571949 0.47597 198 188 182
0.458872 1.95565 -1.23737 -0.887851 -0.446842 -0.109782 196 190 186
0.472607 1.93323 -1.23462 -0.663847 -0.727245 -0.174418 160 158 162
0.496507 1.89968 -1.21808 -0.899383 -0.400751 0.174668 175 172 177
0.487727 1.91945 -1.22714 -0.649947 -0.757281 -0.0639792 142 139 144
0.501491 1.82117 -1.18543 -0.871378 -0.48678 -0.0612016 142 143 146
0.527907 1.81274 -1.17954 -0.770591 -0.630542 0.0927712 46 48 51
0.531502 1.81014 -1.18858 0.149076 -0.98792 -0.0423251 43 46 49
0.842195 1.81441 -1.19534 -0.580018 -0.808802 -0.097046 42 42 46
0.861765 1.80507 -1.20236 -0.0584655 -0.982423 -0.177277 46 48 66
0.878163 1.80416 -1.19208 -0.060936 -0.966241 -0.250332 45 46 60
0.89356 1.80519 -1.20126 -0.0835162 -0.977786 -0.192248 46 48 70
0.906711 1.8004 -1.1924 -0.0667871 -0.864363 -0.498414 46 46 60
0.909139 1.80131 -1.19321 -0.0753096 -0.87406 -0.479946 46 46 62
0.923592 1.8032 -1.20332 -0.0192785 -0.977372 -0.210647 46 47 69
0.94204 1.80535 -1.21067 -0.000859886 -0.943814 -0.330477 45 47 68
0.935092 1.79861 -1.19326 -0.0257206 -0.887606 -0.459885 45 45 59
0.937075 1.79859 -1.19349 -0.0191564 -0.885427 -0.464382 45 45 59
0.960735 1.80339 -1.20178 0.0468686 -0.958168 -0.282344 46 47 65
0.977914 1.80479 -1.21139 -0.0104327 -0.975133 -0.221374 53 46 63
0.978038 1.805 -1.21259 -0.0122906 -0.975849 -0.218102 53 46 63
0.995193 1.80297 -1.20334 -0.0541405 -0.978499 -0.199018 69 48 58
0.996765 1.80375 -1.20184 -0.0953155 -0.978641 -0.182144 69 48 58
1.01127 1.80328 -1.2132 -0.0733569 -0.992772 -0.0949926 80 47 52
1.02855 1.80253 -1.20219 -0.0553629 -0.98951 -0.133436 78 47 51
1.04376 1.80094 -1.21325 -0.0596266 -0.99675 0.0541705 82 47 50
1.05991 1.80068 -1.20354 -0.0406803 -0.993477 -0.106526 80 47 50
1.07519 1.79925 -1.21443 -0.123705 -0.988083 0.0915871 82 46 49
1.09381 1.80035 -1.20238 -0.114463 -0.960651 -0.253079 80 47 50
1.1124 1.80667 -1.20666 -0.0933782 -0.951645 -0.292663 82 46 50
1.12646 1.79671 -1.20241 -0.0395271 -0.963289 -0.26554 79 47 50
1.14116 1.79554 -1.2104 -0.0597567 -0.960866 -0.270491 81 46 50
1.15629 1.7943 -1.21837 -0.146094 -0.895465 -0.420475 81 44 48
1.17498 1.79515 -1.21141 -0.0892711 -0.947422 -0.307281 81 45 50
1.18741 1.7905 -1.21773 -0.109533 -0.956436 -0.270616 81 45 49
1.20467 1.79198 -1.20921 -0.0688382 -0.96223 -0.26339 80 45 50
1.23589 1.78876 -1.21014 -0.106487 -0.97505 -0.194777 79 46 50
1.31249 1.79577 -1.22245 0.0950127 -0.891226 -0.443497 76 46 49
1.97974 1.39414 -1.08165 -0.611724 -0.34862 0.710111 125 116 114
1.99154 1.31057 -1.04694 -0.999359 0.0327269 -0.0145 156 151 150
1.98636 1.21504 -1.00288 -0.969435 -0.0112498 -0.245091 164 160 160
1.98794 1.1953 -1.00219 -0.933784 0.0121776 -0.357629 162 154 153
1.98847 1.16116 -0.990225 -0.986169 -0.0703392 -0.150077 161 156 152
1.98415 1.12366 -0.972392 -0.988141 0.147736 0.0418478 163 162 161
0.484956 2.11348 -1.31906 -0.217818 -0.881722 0.418475 191 186 183
0.467302 1.94849 -1.25899 -0.888301 -0.446783 -0.10633 192 189 187
0.484349 1.91991 -1.24508 -0.763451 -0.625015 -0.162782 147 145 152
0.496962 1.86181 -1.21528 -0.928174 -0.372146 -0.000303529 185 181 186
0.51204 1.80211 -1.186 -0.832603 -0.553059 -0.0299557 48 50 53
0.507036 1.81103 -1.20312 -0.864891 -0.500193 -0.0420883 60 62 66
0.536336 1.79904 -1.1922 -0.209418 -0.93444 0.288037 43 46 49
0.567697 1.84107 -1.21702 0.257944 -0.932037 0.254502 39 44 46
0.83047 1.82814 -1.22448 -0.659758 -0.747325 -0.0788948 42 41 42
0.843777 1.81915 -1.22333 -0.509202 -0.860619 0.00699904 42 42 49
0.850083 1.81303 -1.2098 -0.41047 -0.91183 0.00893594 44 45 57
0.858125 1.81225 -1.22305 -0.381456 -0.922505 0.0589535 46 48 67
0.871551 1.80308 -1.21923 -0.245513 -0.963319 0.108354 46 49 74
0.908801 1.80396 -1.21205 -0.0798737 -0.996114 -0.0371234 45 47 72
0.905747 1.80949 -1.22378 -0.136862 -0.976117 -0.168713 45 47 72
0.923614 1.80346 -1.22027 -0.0697131 -0.997499 -0.0116384 45 47 68
0.957521 1.80361 -1.22144 0.0978671 -0.982576 -0.158007 46 46 64
0.978901 1.80986 -1.22908 -0.213197 -0.973225 -0.0859121 51 45 59
0.992376 1.80363 -1.22125 -0.0337002 -0.99789 -0.0554981 68 47 58
1.02958 1.80267 -1.22068 -0.0415176 -0.996893 0.0669326 83 46 50
1.06053 1.80392 -1.21794 -0.0691351 -0.995535 0.0642741 83 47 50
1.11568 1.80084 -1.22417 0.0693628 -0.997591 0.000857919 83 44 47
1.14097 1.79889 -1.23521 0.263775 -0.904575 -0.334915 83 44 47
1.2043 1.79631 -1.22719 -0.174968 -0.909838 -0.376273 81 45 49
1.21984 1.79851 -1.23509 -0.141055 -0.989095 -0.0423545 80 45 49
1.23526 1.79544 -1.22644 -0.212246 -0.976733 -0.0307229 80 45 49
1.25395 1.79751 -1.24043 -0.0266638 -0.995814 0.0874313 78 46 49
1.32347 1.79658 -1.23612 0.0196327 -0.999727 0.0126396 74 46 49
1.99966 1.34712 -1.07484 -0.967263 -0.00253814 0.253762 147 141 138
1.99145 1.22955 -1.0272 -0.938323 0.236441 0.252282 156 153 151
1.99017 1.17168 -1.00702 -0.970417 -0.114927 -0.212326 157 149 144
1.98562 1.08873 -0.966492 -0.992592 -0.0486419 -0.111332 165 158 155
1.9858 1.08869 -0.96573 -0.991559 -0.0455045 -0.121409 165 158 154
1.98416 1.06692 -0.96375 -0.961008 0.14814 -0.233492 164 162 160
0.480457 2.0959 -1.33185 -0.669989 -0.49095 0.556852 195 188 183
0.484275 2.10124 -1.33474 0.019832 -0.907813 0.418906 193 186 182
0.479358 1.93045 -1.25843 -0.863626 -0.474257 -0.17097 151 149 155
0.492512 1.91785 -1.25906 -0.548261 -0.822992 -0.148639 149 146 153
0.492496 1.91775 -1.25908 -0.55013 -0.821978 -0.147343 149 146 153
0.492496 1.91775 -1.25908 -0.55013 -0.821978 -0.147343 149 146 153
0.502708 1.82033 -1.22038 -0.86586 -0.498501 -0.0422386 128 129 132
0.518741 1.79826 -1.20228 -0.664708 -0.745855 -0.0431697 45 47 50
0.527591 1.80392 -1.21467 -0.499444 -0.864894 0.0501409 44 46 49
0.549187 1.81817 -1.2207 -0.128804 -0.990805 0.041415 40 45 48
0.563929 1.82361 -1.21606 -0.555298 -0.790415 0.258629 40 43 46
0.838378 1.82745 -1.2378 -0.576581 -0.816662 0.0248376 40 40 42
0.850392 1.81439 -1.23778 -0.643517 -0.765335 0.0122203 44 45 57
0.864769 1.80807 -1.23579 -0.519906 -0.851314 0.0704512 46 48 72
0.879493 1.80082 -1.23551 -0.127964 -0.988511 -0.0804389 45 48 74
0.891661 1.80359 -1.22382 -0.0589927 -0.969625 0.237376 42 47 75
0.905548 1.81065 -1.24021 0.00441262 -0.99999 0.000100881 43 45 67
0.922768 1.81291 -1.23618 -0.314636 -0.939446 -0.135816 44 45 63
0.941829 1.808 -1.23073 0.0386918 -0.995817 0.0827727 45 46 62
0.934683 1.80842 -1.24109 -0.0845401 -0.967597 -0.237927 43 45 60
0.963548 1.81172 -1.23779 -0.0583671 -0.998207 -0.0132451 45 45 58
0.979024 1.81086 -1.24702 -0.115332 -0.99268 -0.0358501 50 44 52
0.991965 1.80359 -1.23935 -0.337753 -0.939264 -0.0608866 69 48 55
1.00618 1.79953 -1.23102 -0.410094 -0.911242 0.0382357 80 46 51
1.02401 1.79925 -1.23895 -0.445392 -0.891376 0.0841153 85 45 49
1.04873 1.80362 -1.24365 -0.138528 -0.954392 -0.264474 84 46 49
1.06537 1.80226 -1.23712 -0.339945 -0.896202 -0.28506 83 46 48
1.0803 1.80073 -1.24841 -0.141762 -0.966903 -0.212138 83 46 49
1.09487 1.79323 -1.24215 -0.122505 -0.873373 -0.471394 82 45 49
1.11215 1.7974 -1.24844 -0.0932571 -0.968095 -0.232583 83 45 49
1.15102 1.78946 -1.24674 0.106906 -0.939056 -0.326718 82 45 47
1.17029 1.79981 -1.24793 -0.125905 -0.908627 -0.398177 81 45 48
1.18673 1.79691 -1.23869 -0.0646327 -0.959908 -0.272761 81 45 49
1.18724 1.80297 -1.25579 -0.128095 -0.97709 -0.169964 92 57 61
1.20288 1.80033 -1.24551 -0.197503 -0.96451 -0.175254 81 46 50
1.2181 1.79742 -1.25353 -0.108457 -0.981496 -0.157803 96 64 66
1.2191 1.79934 -1.25491 -0.231082 -0.969274 -0.0843201 103 71 73
1.23455 1.79495 -1.2458 -0.239988 -0.967007 -0.0854609 84 51 54
1.25136 1.79464 -1.25646 -0.0833805 -0.986795 -0.138867 82 50 52
1.26868 1.78853 -1.24088 0.00663584 -0.925905 -0.377698 77 46 49
1.34767 1.7945 -1.25407 -0.136946 -0.989661 -0.0426229 75 50 53
1.3548 1.63431 -1.19202 -0.0976159 -0.920137 0.379236 52 45 49
1.3548 1.63431 -1.19202 -0.0976159 -0.920137 0.379236 52 45 49
1.4168 1.64471 -1.18785 -0.322877 -0.662191 0.676205 48 44 49
1.4168 1.64471 -1.18785 -0.322877 -0.662191 0.676205 48 44 49
1.99693 1.33638 -1.09826 -0.861952 -0.0381184 -0.505555 141 130 124
1.99085 1.21797 -1.04737 -0.996404 0.0771146 0.0350929 160 157 157
1.98778 1.20493 -1.02834 -0.969203 0.146972 0.197598 159 157 156
1.99301 1.18464 -1.02063 -0.966685 -0.0665084 -0.247178 163 156 153
1.99128 1.16197 -1.02393 -0.996762 -0.0750857 0.0287537 164 159 156
1.99093 1.15102 -1.00605 -0.999245 -0.00656617 0.0382918 162 159 157
1.99056 1.15046 -1.00819 -0.990859 -0.00481343 -0.134813 163 159 157
1.98656 1.13148 -1.00333 -0.986084 0.14193 -0.086573 162 162 161
1.98767 1.0765 -0.986453 -0.967068 0.168691 -0.190585 163 163 162
1.97822 1.04387 -0.970987 -0.955239 0.269321 -0.122414 163 163 163
0.461996 1.95039 -1.28311 -0.736355 -0.660733 0.14565 176 172 168
0.484992 2.09726 -1.35423 -0.229286 -0.837943 0.495258 195 188 182
0.47553 1.93988 -1.28092 -0.870233 -0.476128 -0.126481 171 169 172
0.486192 1.92032 -1.27389 -0.886939 -0.453763 -0.0862487 149 147 155
0.491936 1.91992 -1.2766 -0.678128 -0.728266 -0.0988519 147 144 151
0.512442 1.80146 -1.22071 -0.868503 -0.492962 -0.0518643 47 49 52
0.535398 1.8074 -1.23289 -0.471705 -0.877056 0.0909278 42 46 48
0.703161 1.80606 -1.2377 -0.237213 -0.877001 -0.417851 41 41 43
0.731525 1.79956 -1.24034 -0.404491 -0.908589 -0.104173 41 41 42
0.759541 1.80099 -1.23515 -0.582267 -0.759091 0.291113 41 41 42
0.829839 1.8271 -1.25449 -0.610988 -0.790978 0.0323773 42 41 42
0.831219 1.82798 -1.25377 -0.672514 -0.739212 0.0359296 42 41 41
0.815672 1.80777 -1.24372 -0.221586 -0.972968 -0.065063 42 41 42
0.843812 1.82014 -1.25327 -0.738889 -0.672669 0.0394945 43 42 47
0.856216 1.80819 -1.25252 -0.759319 -0.648266 0.0564394 46 47 66
0.870573 1.80256 -1.25093 -0.566904 -0.821639 0.0594094 45 47 73
0.903066 1.81027 -1.25301 0.0764149 -0.992199 -0.098496 45 46 66
0.919546 1.81086 -1.24825 -0.127105 -0.93083 -0.342636 44 45 61
0.904963 1.80901 -1.25793 0.00518906 -0.995325 -0.0964434 45 46 65
0.925083 1.8214 -1.2649 -0.355097 -0.80568 -0.474116 41 45 63
0.934844 1.81485 -1.25628 -0.230089 -0.905882 -0.35558 43 45 59
0.950353 1.82137 -1.26351 -0.158034 -0.872323 -0.462685 44 44 56
0.963853 1.81226 -1.25617 -0.192833 -0.963373 -0.186356 44 43 52
0.979778 1.8133 -1.26281 -0.359368 -0.925368 -0.120619 50 42 47
0.992945 1.80715 -1.25558 -0.340636 -0.937595 -0.0698737 69 47 51
1.00502 1.79775 -1.24833 -0.547284 -0.834523 -0.0636507 80 46 49
1.0161 1.78623 -1.25119 -0.111429 -0.956169 0.270784 83 44 46
1.0514 1.81033 -1.26356 -0.255479 -0.964911 -0.0606441 84 45 49
1.06546 1.80507 -1.25475 -0.260763 -0.943989 -0.202207 84 47 50
1.08254 1.80594 -1.26263 -0.0442355 -0.998699 -0.0253857 111 75 78
1.09668 1.80147 -1.25652 -0.0904061 -0.964892 -0.246596 84 47 51
1.11279 1.80314 -1.26606 0.00873569 -0.993392 -0.114439 100 64 67
1.13413 1.80674 -1.27226 0.12799 -0.990555 -0.0491903 84 44 47
1.17045 1.80638 -1.26497 -0.299352 -0.942546 -0.148309 82 47 50
1.20228 1.80258 -1.26494 -0.122266 -0.991489 -0.0447316 89 57 59
1.21783 1.80034 -1.27488 -0.109333 -0.992924 -0.0463496 126 95 97
1.2338 1.79523 -1.26327 -0.241985 -0.966985 -0.0798993 118 86 89
1.23491 1.79733 -1.26359 -0.155919 -0.973916 -0.164855 119 87 90
1.25469 1.80002 -1.27301 0.0967472 -0.995273 -0.00843862 83 52 55
1.28184 1.79661 -1.26766 0.0286566 -0.965476 -0.258911 75 45 48
1.32133 1.79648 -1.27055 0.0306399 -0.998682 -0.0411783 75 48 51
1.35525 1.64352 -1.19851 -0.125205 -0.89002 0.438393 53 45 48
1.35525 1.64352 -1.19851 -0.125205 -0.89002 0.438393 53 45 48
1.35529 1.64354 -1.19851 -0.125328 -0.889911 0.438579 53 45 48
1.35538 1.6436 -1.19849 -0.126321 -0.888903 0.440335 53 45 48
1.35529 1.64354 -1.19851 -0.125328 -0.889911 0.438579 53 45 48
1.38897 1.6479 -1.20429 -0.351597 -0.615726 0.705168 51 44 46
1.38891 1.64786 -1.2043 -0.348677 -0.619546 0.703269 51 44 46
1.40046 1.60912 -1.18933 -0.235141 -0.780925 0.578676 48 45 48
1.40949 1.60885 -1.20185 -0.645215 -0.500094 0.577585 51 46 48
1.406 1.58841 -1.19174 -0.68638 -0.724753 0.0601237 50 47 51
1.46497 1.5512 -1.17508 -0.630726 -0.735016 0.248869 46 45 47
1.9897 1.31004 -1.09161 -0.933469 0.149133 -0.326183 151 145 141
1.99176 1.2296 -1.06969 -0.991348 0.124718 -0.0409184 159 153 152
1.98594 1.19294 -1.04928 -0.997751 0.0513186 0.0431219 161 159 158
1.99014 1.14031 -1.02434 -0.998775 -0.035795 0.0341777 164 162 161
0.482318 2.07156 -1.36446 -0.161614 -0.982042 0.0973389 189 183 181
0.469063 1.94551 -1.29606 -0.423789 -0.841307 0.335568 192 188 186
0.466387 1.94315 -1.29934 -0.48469 -0.766915 0.420615 194 189 187
0.481866 1.93063 -1.29584 -0.785732 -0.613683 -0.0775811 156 153 158
0.48979 1.85349 -1.2525 -0.608747 -0.790818 -0.0635209 173 171 174
0.506624 1.81424 -1.23542 -0.876509 -0.477523 -0.0608623 73 74 77
0.517605 1.79285 -1.23787 -0.583412 -0.809446 -0.0665407 45 47 50
0.549574 1.81077 -1.2379 -0.227189 -0.851917 0.471829 44 46 48
0.546246 1.79784 -1.24168 -0.499029 -0.566508 0.655773 44 46 48
0.689021 1.81165 -1.2468 -0.274568 -0.871625 -0.406057 40 41 42
0.704536 1.81299 -1.2569 -0.164104 -0.976677 -0.138464 43 44 45
0.718041 1.80535 -1.24681 -0.270524 -0.8792 -0.392203 41 42 42
0.74487 1.79542 -1.25131 -0.648236 -0.711928 -0.270092 41 42 42
0.823038 1.81854 -1.27197 -0.319987 -0.941865 -0.102464 42 42 42
0.838485 1.82358 -1.26868 -0.709828 -0.700792 -0.0709575 42 42 44
0.83847 1.82368 -1.26867 -0.713302 -0.697317 -0.0703502 42 42 44
0.838062 1.82446 -1.26895 -0.719909 -0.68987 -0.0762265 42 42 43
0.850704 1.81321 -1.26812 -0.761407 -0.64289 -0.0833835 45 46 59
0.850228 1.81377 -1.26846 -0.75746 -0.648277 -0.077408 45 46 58
0.864405 1.80435 -1.26803 -0.596229 -0.799734 -0.0702596 45 47 71
0.879314 1.79673 -1.2675 0.127086 -0.976307 0.175142 42 45 71
0.92114 1.81984 -1.27398 -0.328173 -0.919523 -0.216286 41 45 64
0.93963 1.8252 -1.27616 -0.425617 -0.858407 -0.286336 41 43 60
0.966417 1.82733 -1.27859 -0.714145 -0.691414 -0.109285 45 43 52
0.966973 1.82518 -1.28228 -0.599942 -0.762902 -0.240937 45 43 52
0.980115 1.81637 -1.27943 -0.575652 -0.816009 -0.0524841 49 41 45
0.991143 1.80437 -1.27053 -0.51463 -0.854071 -0.0756197 69 46 49
1.00557 1.80022 -1.26317 -0.319801 -0.940701 -0.113177 80 46 49
1.00875 1.80191 -1.27363 -0.195639 -0.980653 0.00670287 81 46 48
1.05007 1.80766 -1.28379 -0.10171 -0.99472 -0.0136559 84 47 51
1.06612 1.8076 -1.27356 -0.230771 -0.967675 -0.101731 107 72 75
1.09829 1.80528 -1.27196 0.0401024 -0.998249 -0.0434825 85 51 55
1.1159 1.80576 -1.28356 0.0849514 -0.983745 -0.158207 119 86 88
1.15173 1.80422 -1.27785 -0.0515046 -0.987842 -0.146681 81 45 48
1.16874 1.80432 -1.28705 -0.0934126 -0.990566 -0.100266 83 47 50
1.18586 1.80365 -1.27681 -0.0495102 -0.996778 -0.0630998 107 74 76
1.20242 1.80313 -1.28676 -0.0575004 -0.996656 -0.0580547 128 97 99
1.21982 1.8029 -1.29347 -0.0314486 -0.996911 -0.0719687 85 54 56
1.23621 1.80007 -1.28488 -0.100149 -0.989524 -0.103979 93 63 65
1.25477 1.80233 -1.29327 0.111485 -0.985647 -0.126773 88 55 59
1.28419 1.79979 -1.29248 0.00947648 -0.997471 -0.0704372 74 44 48
1.30067 1.79618 -1.28272 0.0269876 -0.972368 -0.231889 73 44 48
1.32425 1.79992 -1.29205 -0.0129964 -0.997901 -0.0634464 74 48 49
1.37932 1.62707 -1.22034 -0.459259 -0.661651 0.592705 57 47 48
1.38767 1.61335 -1.20935 -0.594406 -0.6814 0.427054 51 44 47
1.42012 1.58108 -1.19072 -0.700711 -0.709542 0.0745262 48 45 48
1.42797 1.5675 -1.19165 -0.654202 -0.754288 -0.0553969 48 45 48
1.44572 1.56389 -1.19474 -0.596314 -0.802049 -0.0335843 50 45 47
1.45788 1.55307 -1.19429 -0.611048 -0.791481 -0.0133491 50 45 47
1.46992 1.52827 -1.17544 -0.463387 -0.65432 -0.597609 46 44 48
1.52313 1.50672 -1.17443 -0.00322402 -0.977876 -0.209159 46 44 46
1.52231 1.50646 -1.1744 -0.00239396 -0.975825 -0.218539 46 44 46
1.99872 1.32198 -1.11344 -0.941854 0.172825 -0.28817 143 134 130
1.99838 1.30031 -1.11244 -0.948314 0.137808 -0.285849 141 136 133
1.99343 1.26372 -1.09147 -0.949838 0.0870603 -0.30038 153 147 145
1.99348 1.2418 -1.08937 -0.984582 0.0887921 -0.150711 151 146 144
1.99315 1.20666 -1.07022 -0.988525 -0.0354576 0.146834 160 157 156
1.99013 1.15113 -1.0423 -0.996951 -0.0581566 0.0520154 163 161 161
1.98227 1.11491 -1.02989 -0.960866 0.17047 -0.218348 165 163 162
1.98693 1.06358 -1.00803 -0.977714 0.151401 -0.14544 163 163 163
1.98366 1.05412 -0.992052 -0.9362 0.271965 -0.222634 163 163 162
1.98032 1.03174 -0.990596 -0.960438 0.196382 -0.197468 163 161 158
0.449289 1.91824 -1.29638 -0.213942 -0.908229 0.359651 204 196 191
0.510153 2.06749 -1.37747 -0.936907 -0.313215 0.155246 140 137 141
0.495404 1.90056 -1.29599 -0.907014 -0.416189 -0.0641266 172 168 174
0.495404 1.90056 -1.29599 -0.907014 -0.416189 -0.0641266 172 168 174
0.495404 1.90056 -1.29599 -0.907014 -0.416189 -0.0641266 172 168 174
0.497048 1.85509 -1.26786 -0.784375 -0.618564 0.0462135 183 180 183
0.504053 1.8119 -1.25361 -0.882479 -0.467546 -0.0512953 83 83 87
0.690945 1.81745 -1.26556 -0.27901 -0.960271 0.0058443 41 42 43
0.704553 1.81475 -1.2738 -0.17324 -0.979874 -0.0991685 46 46 46
0.719192 1.81192 -1.26588 -0.0838277 -0.993531 -0.0766038 66 66 66
0.735062 1.81077 -1.26619 0.00371403 -0.999972 -0.0065425 55 55 55
0.749164 1.80893 -1.27417 -0.0895781 -0.995717 -0.0228905 42 42 42
0.83528 1.83048 -1.28435 -0.862873 -0.493784 -0.107828 42 42 42
0.833963 1.82985 -1.28395 -0.873393 -0.476102 -0.102527 42 42 42
0.832966 1.82936 -1.28445 -0.878602 -0.46635 -0.10284 42 42 42
0.819771 1.81592 -1.2725 -0.514076 -0.85459 -0.0734915 42 42 42
0.846301 1.8199 -1.28333 -0.756437 -0.63761 -0.145798 42 43 49
0.845664 1.82036 -1.28367 -0.75261 -0.644445 -0.13516 41 43 48
0.858641 1.80837 -1.28372 -0.706087 -0.691504 -0.152524 46 48 68
0.87289 1.80179 -1.28262 -0.6046 -0.781923 -0.151842 45 47 72
0.898335 1.79886 -1.27449 0.0736002 -0.987192 -0.141547 45 47 66
0.95557 1.83718 -1.29891 -0.533433 -0.809813 -0.244236 45 45 60
0.9746 1.82464 -1.29217 -0.840791 -0.536072 -0.0754834 46 43 49
0.984919 1.81099 -1.28595 -0.771191 -0.629161 0.0970583 56 41 45
1.00018 1.80337 -1.28656 -0.632935 -0.763626 0.127549 77 47 49
1.00744 1.80626 -1.28444 -0.562665 -0.820708 -0.0992288 79 46 48
1.03437 1.81097 -1.29203 -0.0826508 -0.995291 0.0506363 85 45 48
1.03012 1.81421 -1.28949 -0.356979 -0.93114 -0.0744618 85 45 48
1.06598 1.80812 -1.29352 -0.0821661 -0.995201 -0.0531341 102 69 72
1.0818 1.80719 -1.30286 -0.00916731 -0.996439 -0.0838231 120 89 92
1.09863 1.8061 -1.29326 -0.0190629 -0.997997 -0.0603257 126 96 98
1.11551 1.80607 -1.30362 0.0390289 -0.997524 -0.0585089 87 54 57
1.13366 1.80905 -1.29328 0.174127 -0.981744 -0.0765433 83 45 48
1.15141 1.80553 -1.2976 0.0168298 -0.984358 -0.175374 84 46 49
1.16983 1.80776 -1.30524 -0.147932 -0.978972 -0.140461 81 45 48
1.16948 1.80769 -1.30509 -0.144731 -0.978756 -0.145221 81 44 48
1.1867 1.80645 -1.29479 -0.188374 -0.980326 -0.058962 96 63 65
1.20273 1.80482 -1.30564 -0.0931493 -0.993199 -0.0698437 85 54 56
1.20273 1.8048 -1.30347 -0.0924502 -0.991867 -0.0874783 87 55 58
1.21934 1.80304 -1.29623 -0.0698587 -0.994206 -0.081697 82 52 54
1.23717 1.80323 -1.30333 -0.00397468 -0.997643 -0.0684989 85 53 55
1.3031 1.80027 -1.3026 -0.0924827 -0.988972 -0.115681 73 44 47
1.31816 1.79783 -1.31327 -0.0704736 -0.989087 -0.129384 72 47 48
1.34358 1.80023 -1.30182 -0.054766 -0.995343 -0.0793284 85 60 61
1.34668 1.64011 -1.22944 -0.376892 -0.674087 0.635264 62 47 48
1.3622 1.62618 -1.23343 -0.384055 -0.718799 0.579509 75 59 60
1.39102 1.60366 -1.22488 -0.608632 -0.382881 0.69496 73 61 61
1.42582 1.57563 -1.20524 -0.593444 -0.778379 -0.204819 55 47 50
1.47046 1.54343 -1.19439 -0.619171 -0.781773 0.0738803 51 45 48
1.48218 1.52962 -1.19275 -0.586626 -0.788339 -0.185447 50 45 49
1.51952 1.51521 -1.1913 -0.513823 -0.850122 0.115237 49 45 48
1.53346 1.5061 -1.1919 -0.608649 -0.770192 0.190659 48 45 47
1.54965 1.49731 -1.19365 -0.631306 -0.694505 0.34513 47 44 47
1.99667 1.30288 -1.13602 -0.951739 0.23182 -0.201129 129 123 121
1.99691 1.27776 -1.11203 -0.921865 0.108165 -0.372108 135 130 129
1.99234 1.25128 -1.11234 -0.984623 0.111627 0.134377 135 130 129
1.99295 1.21868 -1.08866 -0.997248 0.0723537 0.0161878 151 147 147
1.98801 1.18073 -1.0718 -0.968277 0.242881 0.0587314 159 158 156
1.99339 1.18406 -1.06997 -0.968131 -0.0659948 0.241593 161 160 158
1.98617 1.12622 -1.04543 -0.978938 0.103704 -0.175858 165 161 160
1.98311 1.04101 -1.01189 -0.969881 0.0727716 -0.232455 160 155 153
0.505268 2.08236 -1.39979 -0.935752 -0.31577 0.157027 184 181 183
0.497662 1.9136 -1.30976 -0.910392 -0.384929 0.151713 166 163 169
0.497762 1.84157 -1.28739 -0.926296 -0.37678 0.00365769 185 183 186
0.493891 1.86117 -1.30034 -0.922244 -0.386532 -0.0076571 181 178 182
0.508736 1.80287 -1.27126 -0.876196 -0.481622 -0.0179011 51 52 56
0.690689 1.81692 -1.28137 -0.204726 -0.978616 -0.0199632 41 42 43
0.70492 1.81593 -1.29048 -0.228323 -0.973583 0.00218454 51 50 52
0.71845 1.81262 -1.28236 -0.103551 -0.994134 -0.0312161 63 62 63
0.734974 1.81118 -1.28281 0.00241375 -0.999821 -0.0187682 55 54 55
0.749076 1.80906 -1.29074 -0.0969761 -0.995009 -0.0234964 42 42 42
0.842528 1.82714 -1.29963 -0.863684 -0.49445 -0.0978258 42 42 45
0.853178 1.81531 -1.29887 -0.664365 -0.739101 -0.111126 45 47 60
0.855205 1.81417 -1.30048 -0.74931 -0.652479 -0.113162 45 47 62
0.868289 1.80546 -1.29967 -0.793038 -0.600839 -0.100419 45 47 71
0.930339 1.81544 -1.30454 -0.787705 -0.614311 0.0462923 45 45 64
0.978309 1.81766 -1.30183 -0.682063 -0.73094 0.0227487 48 41 46
0.989737 1.80368 -1.30183 -0.891245 -0.428948 0.147261 68 45 48
0.991073 1.80385 -1.29916 -0.87603 -0.459201 0.14733 70 46 49
0.999876 1.81244 -1.30346 -0.365198 -0.930463 0.0294979 73 46 49
1.00129 1.81244 -1.30073 -0.340218 -0.940343 0.002471 74 46 49
1.00686 1.79982 -1.30244 -0.734848 -0.524139 0.430438 84 47 50
1.0317 1.8085 -1.31536 -0.036007 -0.994926 -0.0939485 83 47 50
1.04797 1.80632 -1.30598 -0.0423235 -0.983453 -0.176148 83 48 51
1.06593 1.80953 -1.31355 -0.0703856 -0.996382 -0.0476307 98 66 69
1.09789 1.80637 -1.31359 -0.0283819 -0.994257 -0.103189 97 66 68
1.13318 1.80735 -1.31274 0.0753545 -0.997108 0.00984932 79 43 46
1.15189 1.81099 -1.32269 0.011151 -0.999567 -0.0272425 80 44 46
1.17221 1.81337 -1.32005 -0.307215 -0.947958 -0.083639 80 44 47
1.18667 1.80749 -1.31315 -0.163498 -0.984985 -0.0554356 89 55 58
1.20254 1.80584 -1.32517 -0.0829419 -0.991914 -0.0960554 128 97 99
1.21963 1.80427 -1.31318 -0.0390389 -0.995202 -0.0897154 105 73 76
1.23733 1.80485 -1.32302 0.0217295 -0.997294 -0.0702337 120 88 91
1.25207 1.79862 -1.31742 -0.324257 -0.945118 -0.0401201 82 50 53
1.30365 1.80259 -1.32274 -0.095831 -0.99087 -0.0948367 80 53 56
1.3358 1.79754 -1.32396 -0.0542437 -0.985386 -0.16147 83 58 60
1.34331 1.62416 -1.24698 -0.421395 -0.5055 0.752925 107 88 88
1.34331 1.62416 -1.24698 -0.421395 -0.5055 0.752925 107 88 88
1.34503 1.62524 -1.24666 -0.40126 -0.709116 0.57978 107 88 88
1.40624 1.57664 -1.22521 -0.548359 -0.422361 0.721743 112 96 97
1.42762 1.55714 -1.22415 -0.494861 -0.459153 0.737761 125 109 109
1.49523 1.52292 -1.20344 -0.4755 -0.830368 -0.290498 72 62 64
1.51016 1.51601 -1.20412 -0.505147 -0.853579 0.127398 68 59 61
1.9922 1.26509 -1.13439 -0.982883 0.060309 0.17408 125 121 120
1.99458 1.23086 -1.10843 -0.992132 0.0787634 -0.0973163 135 131 130
1.99252 1.19585 -1.08882 -0.993978 0.00753728 0.109318 157 154 152
1.98791 1.17028 -1.09032 -0.999654 -0.00188059 0.0262365 160 159 156
1.98482 1.15645 -1.07288 -0.971113 0.234671 0.0432362 162 162 161
1.98582 1.13248 -1.07003 -0.997328 -0.0729564 0.00388367 164 161 158
1.98503 1.10469 -1.0476 -0.986677 -0.0509483 -0.15451 163 158 155
1.98615 1.08512 -1.04705 -0.998563 -0.0283543 -0.0454689 164 161 158
1.98385 1.07404 -1.03162 -0.983701 0.101865 0.148175 163 162 162
1.98482 1.05194 -1.02811 -0.999773 0.000831902 -0.0212887 163 161 161
1.98259 1.0223 -1.00771 -0.948629 0.202713 -0.242921 157 150 145
0.509861 2.05236 -1.40052 -0.9367 -0.323709 0.133439 142 139 143
0.511371 1.78165 -1.27167 -0.820602 -0.569841 0.0435288 46 48 52
0.692663 1.82856 -1.30467 -0.623351 -0.759061 -0.187778 41 42 43
0.703652 1.81418 -1.30614 -0.0334615 -0.990241 -0.135286 46 45 46
0.719515 1.81375 -1.298 -0.216652 -0.975665 -0.0337457 65 64 65
0.749221 1.81096 -1.30814 -0.137035 -0.987002 -0.0839492 43 42 43
0.765728 1.81331 -1.30226 -0.359072 -0.748136 -0.557996 39 40 41
0.832483 1.82709 -1.31937 -0.65978 -0.749348 0.0562881 42 42 42
0.849051 1.82289 -1.31501 -0.800242 -0.599675 0.0012278 42 43 51
0.862655 1.81223 -1.3149 -0.753263 -0.657603 -0.0123408 46 48 69
0.929265 1.82014 -1.32178 -0.638653 -0.762796 0.10131 46 45 64
0.92148 1.82184 -1.3216 -0.125464 -0.971988 0.198742 45 45 66
0.953597 1.82362 -1.3247 -0.572731 -0.809991 0.126068 45 44 57
0.970654 1.82078 -1.319 -0.56985 -0.820978 -0.0355841 45 42 50
0.985615 1.81564 -1.32654 -0.160088 -0.986862 -0.0218043 54 41 48
1.00109 1.81477 -1.31758 -0.223609 -0.97462 -0.0107319 72 45 49
1.00202 1.81729 -1.33435 -0.0271156 -0.999353 -0.0236538 72 45 51
1.01832 1.81833 -1.32506 -0.315714 -0.94664 -0.0647889 79 45 48
1.0323 1.81068 -1.33396 0.052852 -0.959075 -0.278177 86 49 52
1.048 1.80907 -1.32502 0.00762194 -0.990179 -0.139599 128 93 96
1.06286 1.80969 -1.33358 -0.0579144 -0.993819 -0.0947102 108 75 78
1.06505 1.8097 -1.33418 -0.0519187 -0.992741 -0.108485 110 77 80
1.06536 1.80974 -1.33505 -0.0519959 -0.993442 -0.101827 108 75 78
1.08277 1.8095 -1.32425 -0.0422899 -0.994754 -0.0931482 134 104 106
1.09732 1.80813 -1.33473 -0.0492089 -0.99216 -0.114876 97 66 67
1.1152 1.80717 -1.32356 -0.00469157 -0.995892 -0.0904296 111 79 82
1.133 1.8089 -1.33345 0.0555866 -0.994065 -0.093519 81 46 49
1.1328 1.80848 -1.33279 0.0422558 -0.992552 -0.11426 81 46 49
1.15094 1.81058 -1.34307 -0.0320828 -0.998591 -0.0422679 81 44 46
1.1725 1.81552 -1.33767 -0.333674 -0.937022 -0.103202 80 44 47
1.17228 1.81592 -1.33814 -0.351882 -0.930388 -0.102748 80 44 47
1.18705 1.80924 -1.33113 -0.189655 -0.976689 -0.100544 120 87 89
1.18542 1.8082 -1.33491 -0.10177 -0.986961 -0.124703 115 83 84
1.20232 1.80729 -1.34499 -0.0955575 -0.994642 -0.0394354 89 58 59
1.20169 1.80719 -1.34473 -0.0868643 -0.995161 -0.0459359 89 58 59
1.21961 1.80525 -1.3352 -0.0575711 -0.988189 -0.142012 87 55 58
1.23628 1.80529 -1.34506 -0.0309812 -0.999214 -0.0247159 79 48 51
1.27344 1.80114 -1.33718 -0.0760101 -0.991525 -0.105361 72 42 45
1.30791 1.80852 -1.34936 -0.137116 -0.964021 -0.227734 70 43 46
1.32191 1.79992 -1.33995 0.0177668 -0.973529 -0.227874 80 55 58
1.2275 1.59616 -1.2456 -0.249905 -0.954396 0.16333 65 50 53
1.23392 1.60387 -1.24063 -0.251004 -0.9396 0.232698 67 51 54
1.3525 1.60635 -1.2521 -0.431832 -0.497414 0.752397 131 109 110
1.44468 1.53075 -1.22647 -0.523726 -0.435929 0.7319 133 115 114
1.50162 1.51772 -1.21752 -0.483851 -0.873828 -0.0480917 126 110 110
1.51417 1.50792 -1.21666 -0.483172 -0.820678 0.305012 116 102 102
1.54205 1.48809 -1.21884 -0.595167 -0.779379 0.195818 94 83 84
1.55116 1.48628 -1.20549 -0.599953 -0.779887 0.178419 51 46 49
1.56379 1.47612 -1.20565 -0.602333 -0.780283 0.168384 48 44 48
1.57699 1.46674 -1.20572 -0.544556 -0.83194 0.106465 46 44 47
1.57767 1.44631 -1.20167 -0.700752 -0.420783 -0.576098 45 44 47
1.99356 1.27335 -1.15493 -0.975153 -0.00464714 0.221484 125 118 116
1.9901 1.27271 -1.14587 -0.95473 0.225626 0.193864 120 114 112
1.99184 1.24024 -1.13392 -0.990183 0.117839 0.0751833 126 122 122
1.9921 1.1851 -1.10748 -0.998715 -0.0386513 0.0327932 152 146 144
1.98734 1.148 -1.09047 -0.968009 0.124971 0.217579 159 159 156
1.98788 1.09587 -1.06307 -0.991315 -0.0350737 -0.126748 156 148 144
1.98809 1.06604 -1.04799 -0.982444 -0.0979297 -0.158787 163 163 162
1.98589 1.03228 -1.02702 -0.979296 0.0588557 -0.193687 161 154 152
0.506113 2.06854 -1.42268 -0.935329 -0.330212 0.126966 182 180 182
0.49689 1.83933 -1.31927 -0.88226 -0.466664 -0.0619881 184 182 185
0.502026 1.8278 -1.30514 -0.87022 -0.491489 -0.0339893 158 157 160
0.513835 1.81188 -1.30519 -0.541304 -0.840803 0.0063798 48 49 52
0.514324 1.81379 -1.30603 -0.586892 -0.809528 -0.0149032 48 50 53
0.50259 1.76716 -1.28132 -0.924269 -0.367718 0.10252 47 49 53
0.510682 1.77953 -1.28126 -0.826183 -0.562167 0.0372779 47 48 51
0.501606 1.76286 -1.27384 -0.925439 -0.366818 0.0949062 48 49 53
0.495969 1.74284 -1.27024 -0.916713 -0.377103 0.132023 48 50 54
0.518859 1.79719 -1.29284 -0.854829 -0.518906 0.00182378 46 48 51
0.519358 1.80132 -1.29335 -0.742797 -0.669434 -0.0105429 45 46 49
0.689553 1.82022 -1.31764 -0.238868 -0.96301 -0.124718 41 42 43
0.703511 1.81554 -1.32382 -0.0039598 -0.994804 -0.101736 45 45 46
0.719138 1.81467 -1.31492 -0.127428 -0.985398 -0.112928 71 69 70
0.719018 1.81922 -1.32946 -0.36845 -0.926455 -0.0769849 59 57 59
0.733546 1.81238 -1.31366 -0.0532432 -0.991029 -0.122582 60 58 60
0.746923 1.80602 -1.32186 -0.354632 -0.928237 -0.112304 43 42 42
0.764376 1.81402 -1.32063 -0.316789 -0.948248 0.0216688 42 42 42
0.767352 1.81875 -1.32352 -0.224176 -0.945515 -0.236108 39 40 41
0.840633 1.82589 -1.33089 -0.676408 -0.736409 -0.0131691 41 42 44
0.85562 1.81694 -1.33023 -0.645914 -0.763399 0.0042516 45 47 62
0.870957 1.81135 -1.32929 -0.703151 -0.707861 -0.0671716 45 47 72
0.896292 1.81117 -1.33944 -0.0674248 -0.989074 0.131094 44 46 69
0.896364 1.81122 -1.33963 -0.0655858 -0.989425 0.129371 44 46 69
0.904409 1.81407 -1.33636 -0.12306 -0.981249 0.148349 45 46 68
0.930457 1.81999 -1.3352 -0.167362 -0.966087 0.196638 45 45 63
0.953768 1.81547 -1.34418 -0.0660597 -0.989094 -0.131638 44 43 57
0.985754 1.81638 -1.34399 -0.0611452 -0.998041 0.0132562 56 43 53
1.01604 1.8122 -1.34437 -0.0278685 -0.99922 0.0279795 80 44 48
1.04687 1.81142 -1.34283 -0.050642 -0.997878 -0.0409229 86 50 53
1.04848 1.81078 -1.34376 -0.00738338 -0.998273 -0.0582811 85 49 52
1.04876 1.81091 -1.34466 -0.000138164 -0.998083 -0.0618826 85 49 51
1.0648 1.81173 -1.35385 -0.0603279 -0.993763 -0.0937868 99 65 67
1.08196 1.80976 -1.34479 -0.0148897 -0.995973 -0.0884107 94 60 62
1.08101 1.80975 -1.34416 -0.0664591 -0.994136 -0.0853034 93 60 62
1.09766 1.80958 -1.35406 -0.0404607 -0.997977 -0.0490351 122 89 91
1.09765 1.80961 -1.35369 -0.0465868 -0.998183 -0.0382209 121 88 89
1.11518 1.80874 -1.34363 0.00645375 -0.996808 -0.0795753 112 78 81
1.13297 1.81043 -1.35353 0.0598326 -0.995353 -0.0754555 81 45 49
1.13332 1.81253 -1.35303 0.131061 -0.989836 -0.0552073 82 44 48
1.15279 1.81614 -1.36328 0.0113218 -0.992335 -0.123058 78 41 44
1.17275 1.818 -1.35545 -0.360895 -0.932535 -0.0115656 79 43 46
1.18701 1.81112 -1.35004 -0.229107 -0.972513 -0.0415779 98 65 68
1.18561 1.80899 -1.35457 -0.0967084 -0.995282 0.00782118 101 69 71
1.20176 1.80821 -1.36405 -0.109328 -0.993377 -0.0353453 129 99 100
1.20243 1.80827 -1.36417 -0.109122 -0.993548 -0.0309096 129 98 100
1.21852 1.80642 -1.35443 -0.0573306 -0.997506 -0.0411787 103 71 74
1.2188 1.8064 -1.35477 -0.0517279 -0.997918 -0.0385313 104 72 75
1.21904 1.80638 -1.35461 -0.0520034 -0.997848 -0.0399492 103 72 74
1.23766 1.8083 -1.36258 0.0494391 -0.997313 -0.0540655 118 86 89
1.25575 1.80796 -1.3524 0.0812184 -0.994979 -0.0584871 77 48 51
1.16719 1.62252 -1.2657 -0.344952 -0.894817 0.283393 62 45 47
1.17366 1.61424 -1.25827 -0.193301 -0.961515 0.195252 62 45 47
1.21555 1.59922 -1.25379 -0.247502 -0.955711 0.159243 67 49 52
1.22929 1.59635 -1.25988 -0.361469 -0.898792 0.248018 83 63 65
1.33662 1.60617 -1.26506 -0.380148 -0.621516 0.684985 135 112 111
1.35671 1.56225 -1.24438 -0.360196 -0.601582 0.712993 121 101 100
1.39891 1.5507 -1.24388 -0.499264 -0.451896 0.739274 145 122 122
1.45896 1.5015 -1.22314 -0.341922 -0.652318 0.676439 130 112 113
1.49721 1.51322 -1.23142 -0.430758 -0.901189 -0.04803 135 115 115
1.4977 1.49163 -1.23172 -0.499576 -0.85405 0.144991 133 114 114
1.55557 1.47865 -1.21925 -0.608912 -0.768353 0.197128 74 63 65
1.5688 1.46931 -1.21934 -0.580308 -0.798863 0.158305 60 52 54
1.74115 1.30559 -1.16484 -0.728901 -0.606323 -0.317923 151 81 90
1.99952 1.29411 -1.1692 -0.974728 0.218143 0.0481633 120 113 113
1.99236 1.25145 -1.15525 -0.977221 0.200336 0.0700409 124 117 115
1.99879 1.20921 -1.12747 -0.989005 0.0450145 -0.140864 131 125 122
1.99075 1.16076 -1.10657 -0.995438 0.0142563 0.0943364 161 159 156
1.98815 1.12377 -1.08668 -0.990152 -0.139486 -0.0119398 164 160 158
1.98908 1.0857 -1.08136 -0.997402 -0.00698665 0.0716929 165 158 155
1.98817 1.07475 -1.06484 -0.9922 0.0203071 -0.122987 164 160 158
1.98794 1.0543 -1.06518 -0.973384 -0.0374782 -0.226096 163 163 163
1.985 1.04169 -1.04587 -0.981785 0.127672 0.140705 164 162 162
0.509555 2.03902 -1.42352 -0.936963 -0.314192 0.152916 144 141 146
0.512095 1.97581 -1.39591 -0.925723 -0.377674 0.020009 158 155 161
0.507832 1.81807 -1.32083 -0.687618 -0.725722 -0.0225445 77 78 82
0.507825 1.81868 -1.32017 -0.691905 -0.721817 -0.0157723 79 80 84
0.515915 1.80169 -1.30476 -0.864075 -0.503081 -0.0168608 45 47 49
0.515907 1.80165 -1.30477 -0.864634 -0.50212 -0.0168079 45 47 49
0.501572 1.75016 -1.28719 -0.926519 -0.364564 0.093038 46 48 52
0.515907 1.80165 -1.30477 -0.864634 -0.50212 -0.0168079 45 47 49
0.520876 1.80905 -1.32036 -0.533075 -0.846022 -0.00885755 45 46 49
0.517737 1.79433 -1.3085 -0.843204 -0.528832 0.0966604 46 47 50
0.690101 1.82174 -1.33333 -0.253115 -0.966 -0.0526917 41 42 43
0.704778 1.82046 -1.34274 -0.228953 -0.972482 -0.0431237 43 42 45
0.733001 1.8131 -1.3415 -0.190229 -0.98173 -0.00443944 62 60 62
0.733578 1.8133 -1.34292 -0.34314 -0.938823 -0.0294349 61 59 61
0.747092 1.80762 -1.33824 -0.322092 -0.944988 -0.0570459 43 41 43
0.765694 1.8195 -1.33401 -0.282137 -0.959352 0.00658774 44 43 45
0.820029 1.81444 -1.34955 -0.484507 -0.864692 -0.132518 42 42 42
0.819708 1.81455 -1.34836 -0.480853 -0.870498 -0.10495 42 42 42
0.817709 1.80785 -1.3382 -0.468475 -0.868235 0.1634 42 42 41
0.83435 1.82584 -1.35556 -0.751931 -0.653518 -0.0866839 41 41 43
0.831868 1.82576 -1.35072 -0.779027 -0.620862 -0.0874494 41 42 43
0.84816 1.82081 -1.3469 -0.552317 -0.831584 -0.0584398 43 44 51
0.862755 1.81076 -1.34713 -0.664401 -0.747155 -0.018187 46 48 70
0.923982 1.80864 -1.35691 -0.183931 -0.982892 -0.00961822 45 45 66
0.913327 1.81177 -1.34515 -0.144444 -0.987822 0.0578272 45 45 66
0.968496 1.81249 -1.35366 -0.0158107 -0.999786 0.0133513 48 44 58
0.98567 1.81392 -1.3625 -0.0863275 -0.995761 0.0317389 58 44 57
1.0011 1.81541 -1.35318 -0.02849 -0.984439 0.173403 71 43 52
1.01759 1.81523 -1.36212 -0.296872 -0.948436 0.111065 80 44 49
1.03158 1.81116 -1.35346 0.0221754 -0.993114 -0.115032 81 44 47
1.049 1.81424 -1.36279 -0.0501147 -0.987392 -0.15015 82 44 47
1.06427 1.81327 -1.37225 -0.0604794 -0.992073 -0.110153 81 45 47
1.08102 1.81089 -1.36358 -0.0667568 -0.99626 -0.0548673 114 80 81
1.09781 1.81096 -1.37308 -0.0362691 -0.998037 -0.0510578 85 49 51
1.11496 1.81052 -1.36329 0.0200479 -0.993138 -0.115213 94 59 61
1.13221 1.81238 -1.37299 0.119526 -0.992189 0.0356965 83 43 46
1.1733 1.81937 -1.37284 -0.446409 -0.89474 -0.0126653 79 42 46
1.18744 1.81278 -1.3682 -0.283292 -0.952441 -0.112263 109 77 79
1.21886 1.8079 -1.37354 -0.033406 -0.993184 -0.111671 92 61 62
1.21978 1.80851 -1.37334 -0.00499237 -0.992378 -0.123128 92 61 63
1.23605 1.80855 -1.38342 0.00604126 -0.998333 -0.0573958 77 46 48
1.25377 1.80733 -1.37354 -0.0763278 -0.977932 -0.194482 74 42 46
1.17698 1.62241 -1.28488 -0.756409 -0.652985 -0.0381662 69 47 49
1.18035 1.61636 -1.27216 -0.4413 -0.88675 0.137585 67 46 48
1.16106 1.59403 -1.2584 0.0750171 -0.988983 -0.127612 62 47 48
1.19287 1.60708 -1.27213 -0.443418 -0.896095 0.0198429 70 48 49
1.18148 1.59938 -1.26509 0.0433513 -0.974055 -0.222122 67 46 48
1.18533 1.59572 -1.2611 -0.1305 -0.977421 -0.166184 66 46 48
1.20767 1.6002 -1.27198 -0.351917 -0.930746 0.0993314 85 63 65
1.21246 1.59712 -1.27082 -0.310568 -0.950539 0.00490437 89 68 69
1.22838 1.59023 -1.2757 -0.392432 -0.867224 0.306464 123 99 101
1.24171 1.58775 -1.26598 -0.382609 -0.867877 0.316859 107 86 87
1.26231 1.58418 -1.27066 -0.482366 -0.779717 0.399205 135 112 112
1.36145 1.5583 -1.27372 -0.168406 -0.847419 0.503507 151 120 121
1.36191 1.54343 -1.26277 -0.452792 -0.480464 0.751088 152 127 126
1.40468 1.52007 -1.24758 -0.451399 -0.484297 0.749463 145 122 121
1.52672 1.47478 -1.24119 -0.368719 -0.843217 0.391193 134 116 115
1.57257 1.45955 -1.23327 -0.535349 -0.77807 0.328646 96 84 84
1.58224 1.44609 -1.23294 -0.850545 -0.4429 -0.283571 72 62 62
1.5888 1.44186 -1.22012 -0.888283 -0.361508 -0.28331 50 45 47
1.61374 1.43985 -1.22655 -0.759047 -0.433529 0.485696 56 51 53
1.61766 1.41773 -1.223 -0.0394725 -0.952561 -0.301778 59 55 57
1.61318 1.41379 -1.22446 -0.139049 -0.926601 -0.349393 59 56 57
1.7501 1.29818 -1.17917 -0.929294 -0.350931 -0.115158 160 90 86
1.75216 1.28898 -1.16247 -0.899179 -0.361068 -0.247199 153 78 83
1.99946 1.30684 -1.19526 -0.978304 0.193481 0.0740706 118 112 111
1.99618 1.28201 -1.18727 -0.983125 0.151411 0.102661 119 111 110
1.99522 1.26586 -1.17149 -0.954073 -0.178132 0.240861 120 111 108
2.00034 1.24821 -1.17067 -0.992983 -0.106094 0.0522451 124 117 115
1.99346 1.22961 -1.15507 -0.981484 0.151689 0.116959 127 122 121
1.99168 1.18459 -1.14375 -0.995464 -0.0442944 0.0841967 135 127 125
1.99168 1.18478 -1.14333 -0.996037 -0.0295517 0.0838875 135 127 124
1.99173 1.17219 -1.12425 -0.998901 0.00470534 0.046625 149 142 138
1.9899 1.14995 -1.12528 -0.996917 0.0623852 0.0475844 161 160 157
1.98767 1.13783 -1.10718 -0.982209 0.0964159 0.161149 162 161 161
1.9847 1.11099 -1.10087 -0.98741 -0.0698235 0.141937 164 160 158
1.99024 1.06568 -1.08142 -0.992346 -0.073578 0.0991777 164 162 162
0.506721 2.0546 -1.44447 -0.93442 -0.338388 0.111143 180 177 181
0.510364 2.00351 -1.43163 -0.933697 -0.348064 0.0840345 142 138 144
0.511577 1.98823 -1.41241 -0.902425 -0.426238 -0.0628511 146 142 149
0.502654 1.8294 -1.3417 -0.92486 -0.380288 0.00378496 165 163 168
0.513506 1.80825 -1.3364 -0.686112 -0.727315 -0.0161939 46 48 52
0.500798 1.75206 -1.2997 -0.726843 -0.67171 0.143195 45 47 51
0.499153 1.75505 -1.30121 -0.85071 -0.419051 0.317317 48 50 54
0.524629 1.7929 -1.32855 -0.684774 -0.727796 -0.0373876 43 45 47
0.526696 1.80532 -1.32624 -0.906142 -0.375062 0.195539 47 48 52
0.526696 1.80532 -1.32624 -0.906142 -0.375062 0.195539 47 48 52
0.537448 1.78392 -1.32636 -0.322757 -0.881813 0.34385 40 43 44
0.69071 1.82051 -1.35511 -0.301886 -0.952839 -0.0310385 42 41 44
0.706306 1.82524 -1.35421 -0.400089 -0.914562 0.0591998 43 42 45
0.718944 1.81945 -1.34637 -0.30016 -0.953461 -0.02858 67 64 66
0.73273 1.81205 -1.35747 -0.316481 -0.948524 0.0119115 62 60 61
0.748925 1.81427 -1.35033 -0.0464261 -0.998796 -0.0158494 43 42 43
0.756366 1.79478 -1.34651 -0.05544 -0.988038 -0.143898 39 40 41
0.827657 1.84006 -1.38079 -0.59375 -0.725924 0.347124 39 40 41
0.827548 1.83996 -1.38081 -0.598144 -0.723108 0.345454 39 40 41
0.834523 1.82691 -1.37576 -0.471329 -0.881355 0.0325986 42 41 43
0.847502 1.8192 -1.36534 -0.35823 -0.933473 -0.0172727 43 43 51
0.860953 1.81317 -1.35748 -0.466031 -0.88275 -0.0597359 46 48 67
0.876921 1.81174 -1.36293 -0.191188 -0.975951 -0.104724 46 48 71
0.890674 1.80427 -1.35501 -0.0648139 -0.984151 -0.165066 47 48 72
0.90776 1.80847 -1.36423 0.0238948 -0.977348 -0.210284 46 46 70
0.923027 1.80958 -1.37295 -0.0363586 -0.982079 -0.184929 46 47 70
0.938162 1.80728 -1.36436 -0.0186295 -0.980783 -0.194212 46 46 64
0.952066 1.81073 -1.36302 0.0973895 -0.994259 0.0443292 44 44 62
0.967574 1.80986 -1.37215 -0.076535 -0.992858 -0.0915185 49 45 63
0.983972 1.81059 -1.38131 -0.153143 -0.986721 -0.0541228 57 46 58
0.999876 1.80853 -1.37224 -0.294244 -0.95097 0.0952769 74 45 54
1.01574 1.80905 -1.37923 -0.197352 -0.978722 0.0561708 81 44 48
1.03097 1.81192 -1.3729 0.213211 -0.977002 0.00274098 82 43 46
1.04846 1.81572 -1.3812 -0.0140575 -0.968983 -0.246726 81 43 46
1.06482 1.81652 -1.39002 -0.21093 -0.975829 -0.0571552 80 43 46
1.06428 1.81811 -1.38973 -0.117437 -0.976375 -0.181386 80 43 46
1.08016 1.81255 -1.38231 -0.068547 -0.996301 -0.051816 81 44 47
1.08134 1.81267 -1.38255 -0.0683968 -0.995011 -0.0726287 81 44 47
1.09715 1.81227 -1.39163 -0.0599801 -0.995377 -0.075011 81 44 46
1.09798 1.81237 -1.39209 -0.0561611 -0.996714 -0.0583644 81 44 46
1.11442 1.81159 -1.38305 0.000277281 -0.994448 -0.105233 80 44 46
1.11525 1.81176 -1.38173 -0.0261048 -0.999439 -0.0210042 80 44 46
1.15196 1.81119 -1.38954 -0.101011 -0.968027 0.229609 83 42 46
1.17228 1.81767 -1.39189 -0.219718 -0.97206 -0.0826035 78 41 45
1.18519 1.81154 -1.39282 -0.10609 -0.990462 -0.0879166 93 59 62
1.20215 1.8097 -1.38312 -0.107466 -0.993123 -0.0464602 87 56 57
1.23712 1.81167 -1.40285 -0.0368204 -0.993303 -0.109514 85 52 55
1.2194 1.80932 -1.3928 -0.00590786 -0.996803 -0.0796758 79 46 49
1.25541 1.81141 -1.3922 0.0162087 -0.997588 -0.0674882 85 52 56
1.18058 1.61678 -1.29964 -0.838976 -0.542603 -0.0412537 90 66 68
1.18602 1.61079 -1.28548 -0.600347 -0.793279 0.101448 77 55 56
1.19939 1.60207 -1.28531 -0.525512 -0.832918 0.173452 109 86 87
1.21412 1.59246 -1.28597 -0.455304 -0.834609 0.310042 135 110 111
1.24241 1.5897 -1.2871 -0.356157 -0.875909 0.325476 139 113 113
1.54303 1.4668 -1.24747 -0.493305 -0.774269 0.39643 136 117 116
1.56302 1.46116 -1.24631 -0.562626 -0.808495 0.172591 131 113 113
1.57555 1.45052 -1.24646 -0.646934 -0.730556 0.218551 123 108 107
1.58641 1.43688 -1.24853 -0.910583 -0.401915 -0.0964549 116 102 100
1.59845 1.43824 -1.23831 -0.75149 -0.553415 0.359158 68 59 59
1.61004 1.42404 -1.23871 -0.792806 -0.528245 0.304001 62 57 57
1.62015 1.40913 -1.23877 -0.511011 -0.853619 -0.101011 61 57 58
1.72713 1.34354 -1.21658 -0.996293 -0.0711263 -0.048394 128 83 84
1.73023 1.33488 -1.19976 -0.845742 -0.526235 -0.088305 143 82 88
1.74041 1.32002 -1.19717 -0.87817 -0.460007 -0.131187 149 78 86
1.7479 1.30364 -1.19676 -0.935948 -0.350651 0.0323217 168 103 95
1.75763 1.28105 -1.17862 -0.92319 -0.351026 -0.156526 168 100 87
1.99549 1.29715 -1.21423 -0.9822 0.185482 -0.0296402 117 111 112
1.99062 1.25133 -1.19042 -0.975017 0.0113047 0.221841 121 113 110
1.98789 1.19411 -1.16072 -0.972021 -0.136826 0.190926 131 126 126
1.99282 1.16362 -1.14269 -0.980113 -0.124945 0.154169 153 147 145
1.98788 1.12719 -1.12564 -0.994914 -0.0884714 0.0481537 163 162 162
1.9835 1.10098 -1.11844 -0.944006 0.263002 0.199205 162 162 161
1.98835 1.07522 -1.09849 -0.99693 -0.0683989 0.0381023 165 162 160
1.98734 1.04533 -1.08314 -0.9923 -0.12385 -0.00137197 161 161 162
0.507297 2.04082 -1.46554 -0.935551 -0.327676 0.131808 175 172 177
0.508707 2.02309 -1.44755 -0.936655 -0.320894 0.140373 143 140 146
0.508619 2.02443 -1.44548 -0.936812 -0.317181 0.147579 144 141 146
0.514628 1.99743 -1.44773 -0.923742 -0.382493 0.0200014 145 141 147
0.497202 1.83665 -1.35807 -0.931632 -0.360211 0.0480586 190 186 190
0.51357 1.97629 -1.43244 -0.91242 -0.408264 -0.0284707 155 152 158
0.511982 1.96104 -1.41595 -0.917299 -0.397977 -0.0133263 166 163 170
0.506394 1.81379 -1.35459 -0.824195 -0.566167 0.0125833 80 81 84
0.512524 1.81156 -1.3436 -0.755161 -0.655534 0.00251315 48 49 53
0.606378 1.82826 -1.37145 -0.249722 -0.80816 0.533401 42 43 46
0.601357 1.80567 -1.36 0.326 -0.935354 -0.137248 40 41 44
0.618578 1.81725 -1.3582 -0.11712 -0.992299 -0.0403317 41 42 43
