ply
format ascii 1.0
element vertex 722
property float x
property float y
property float z
property float nx
property float ny
property float nz
property uchar diffuse_red
property uchar diffuse_green
property uchar diffuse_blue
end_header
2.5668 1.62996 -2.48338 -0.155305 -0.985947 0.0615524 119 121 89
2.55609 1.65459 -2.5132 -0.12644 -0.989716 0.0668961 120 124 91
1.89218 1.16146 -2.97834 0.165822 -0.986083 0.0119522 136 141 156
1.87407 1.16065 -3.02451 0.0853218 -0.991524 -0.0979773 138 144 159
1.8332 1.17004 -3.08607 -0.0109821 -0.984725 -0.173769 130 136 147
1.83157 1.17559 -3.12763 -0.0230475 -0.983662 -0.178542 44 46 49
1.78104 1.23594 -3.3051 -0.0414618 -0.957353 -0.285931 34 36 38
1.76014 1.2239 -3.31255 0.0433101 -0.99522 -0.0875266 48 54 63
1.73491 1.24924 -3.36634 0.0845921 -0.989702 -0.115475 123 130 146
1.70905 1.24765 -3.412 0.0702307 -0.995284 -0.0669191 84 82 83
1.70939 1.24803 -3.44542 -0.0224443 -0.97825 -0.206211 112 121 143
1.68254 1.25115 -3.5088 0.170248 -0.984004 -0.0524564 130 136 154
1.66723 1.26018 -3.53533 0.102876 -0.99467 0.00695509 130 137 154
1.64489 1.27031 -3.56143 0.491648 -0.8614 0.127561 128 134 150
1.63103 1.27177 -3.58909 0.288669 -0.954507 -0.0747464 127 133 148
1.61786 1.268 -3.62942 0.0975541 -0.995214 -0.00565138 125 131 146
1.60648 1.43385 -3.91431 -0.380165 -0.644699 0.663203 132 137 109
1.44166 1.39847 -4.11598 -0.259032 -0.821221 0.508427 124 128 103
1.43931 1.39554 -4.11332 -0.178714 -0.960706 0.212379 122 126 100
1.44365 1.39803 -4.11476 -0.124072 -0.842003 0.525011 123 127 102
1.39501 1.38976 -4.18779 -0.366125 -0.930313 0.0216978 119 123 90
1.40235 1.38601 -4.17366 -0.308597 -0.951192 0.00112998 121 124 91
1.41072 1.37865 -4.16533 -0.0278779 -0.975004 -0.22043 123 126 95
2.56563 1.64507 -2.46946 -0.157068 -0.986067 0.0547912 117 119 85
2.25544 1.34494 -2.55581 0.483755 -0.87358 0.0532736 128 130 131
2.08934 1.21894 -2.67911 0.378307 -0.92118 0.09116 139 143 154
1.95614 1.17096 -2.82073 0.211575 -0.96395 0.161359 124 126 137
1.89067 1.16002 -2.93486 0.208277 -0.974208 -0.0868244 135 132 139
1.83322 1.16342 -3.05578 -0.00974253 -0.983961 -0.178116 131 133 146
1.80708 1.16655 -3.07131 0.00113889 -0.972638 -0.232322 129 132 143
1.80018 1.17014 -3.10375 0.0275419 -0.979084 -0.201582 79 83 89
1.79697 1.17854 -3.13012 -0.0050064 -0.98607 -0.166254 31 33 35
1.73478 1.22783 -3.3019 0.0219803 -0.998871 -0.0421135 38 42 50
1.73013 1.24909 -3.3318 0.0243948 -0.977989 -0.207226 51 55 63
1.68438 1.24814 -3.43181 -0.0798147 -0.992479 -0.0928119 100 89 81
1.67001 1.24351 -3.44762 0.0338067 -0.998596 -0.040779 82 86 116
1.6506 1.25035 -3.47557 0.0669946 -0.996701 -0.045808 127 134 152
1.64796 1.25231 -3.52201 0.12623 -0.991958 -0.00922546 125 130 147
1.62862 1.25729 -3.51271 0.410916 -0.905961 -0.101891 129 133 148
1.62158 1.25384 -3.5327 0.0798366 -0.991941 -0.0983869 129 133 148
1.61348 1.25912 -3.55686 0.185563 -0.979644 -0.0765812 126 129 144
1.61025 1.26413 -3.58036 0.226251 -0.958989 -0.170734 127 126 138
1.58521 1.26053 -3.59698 0.159074 -0.981594 -0.105681 115 102 98
1.55756 1.43158 -3.92474 -0.313301 -0.947694 0.0609736 134 139 107
1.43845 1.40004 -4.07761 -0.106117 -0.993063 0.0506421 122 128 98
1.43838 1.4 -4.07759 -0.188438 -0.979506 -0.0711251 122 128 98
1.41106 1.40238 -4.11609 -0.523257 -0.708664 0.473284 121 125 95
1.41669 1.40604 -4.14133 -0.265184 -0.951019 -0.158874 120 125 97
1.39807 1.38505 -4.13123 -0.809795 -0.586561 -0.0133182 120 125 95
2.58211 1.55755 -2.22511 0.439933 -0.897598 -0.0278568 115 118 84
2.57553 1.55981 -2.24612 0.356256 -0.92666 0.119931 116 118 84
2.57369 1.56115 -2.2669 0.408311 -0.91226 0.0326108 117 119 87
2.2495 1.32884 -2.52005 0.468928 -0.870459 0.14969 136 143 153
1.9229 1.17059 -2.82942 0.168604 -0.985648 -0.00843233 125 123 130
1.92503 1.16598 -2.85478 0.089695 -0.995368 -0.0346114 122 113 119
1.90428 1.16424 -2.86921 0.0853977 -0.994015 -0.0681223 113 95 96
1.89026 1.16014 -2.90806 0.171439 -0.985175 -0.00616646 127 116 117
1.80712 1.16291 -3.03502 -0.0830212 -0.987071 -0.137103 127 127 133
1.80089 1.16388 -3.07296 0.031869 -0.988865 -0.14536 127 130 141
1.77948 1.17125 -3.08176 -0.0868303 -0.92091 -0.379981 113 116 126
1.78233 1.1892 -3.13706 -0.0154404 -0.971532 -0.236403 33 35 36
1.70714 1.24803 -3.31452 0.052617 -0.995714 -0.0760651 36 39 46
1.70316 1.24956 -3.34536 0.0409875 -0.995708 -0.0829823 102 108 121
1.66099 1.24892 -3.42155 -0.0475712 -0.989414 -0.137099 79 72 88
1.63496 1.24671 -3.43787 0.068575 -0.996201 -0.0536662 99 107 131
1.62756 1.24812 -3.46313 0.021142 -0.995558 -0.0917465 128 133 149
1.61174 1.2586 -3.52414 0.272206 -0.959294 -0.0752222 126 129 145
1.58844 1.25529 -3.54196 0.146783 -0.987504 -0.0573618 126 127 140
1.58798 1.2585 -3.56794 0.171621 -0.979226 -0.107993 125 115 116
1.55993 1.25534 -3.58272 0.146634 -0.989159 -0.00788622 105 81 59
1.56752 1.26221 -3.61158 -0.0507323 -0.977156 -0.206381 136 129 134
1.54454 1.26396 -3.62297 -0.0451841 -0.973906 -0.22241 128 130 142
1.41284 1.39382 -4.08764 -0.482789 -0.712189 0.509609 125 130 103
2.54585 1.56663 -2.27715 0.271064 -0.944575 -0.185209 116 119 86
2.46098 1.53929 -2.38761 -0.386673 -0.856254 -0.342509 119 122 90
2.08809 1.25726 -2.62022 -0.384417 -0.662798 0.642591 41 43 43
1.88463 1.16045 -2.85691 0.0893013 -0.993566 -0.0696582 125 104 84
1.8038 1.15661 -2.99406 -0.0601664 -0.987713 -0.144234 127 119 103
1.77967 1.16526 -3.05185 0.000781842 -0.983363 -0.181649 128 131 143
1.75652 1.16923 -3.06886 -0.115701 -0.940298 -0.320082 125 129 141
1.75059 1.17879 -3.09208 -0.157303 -0.89431 -0.418887 50 53 57
1.7565 1.17854 -3.09247 -0.150728 -0.896018 -0.417651 53 55 60
1.75599 1.18576 -3.12048 0.0461001 -0.978061 -0.203153 32 33 35
1.67669 1.25067 -3.32351 -0.018025 -0.997617 -0.0666043 74 78 87
1.67682 1.25183 -3.35639 -0.0177402 -0.997952 -0.0614567 104 114 133
1.63461 1.24692 -3.40266 0.109788 -0.990958 -0.0771262 82 73 89
1.61036 1.24744 -3.44388 0.0270447 -0.998326 -0.0511231 121 124 117
1.59131 1.25169 -3.51395 0.188519 -0.956808 -0.221311 124 128 136
1.55067 1.24935 -3.53572 -0.00936833 -0.994618 -0.103186 130 130 129
1.54876 1.25345 -3.55658 -0.0765279 -0.996597 -0.030622 123 106 91
1.54795 1.26027 -3.60178 -0.0738445 -0.972778 -0.219657 130 117 117
1.54794 1.2561 -3.58136 -0.0542925 -0.987345 -0.149005 119 91 74
1.52216 1.2612 -3.61305 -0.110536 -0.961634 -0.25108 126 128 139
1.52212 1.26652 -3.63352 -0.04087 -0.961811 -0.270647 132 139 156
1.48954 1.41919 -3.89491 0.125219 -0.988531 0.084417 124 126 99
1.46992 1.4056 -3.89968 0.110816 -0.993811 0.00768191 122 125 98
1.4695 1.4161 -3.90763 0.161467 -0.983235 0.0847157 125 128 100
1.49081 1.42929 -3.90594 0.165525 -0.982399 0.0865709 126 129 101
1.47012 1.42325 -3.92229 0.131146 -0.987055 0.0923165 127 129 101
1.7796 1.15853 -2.97885 -0.11242 -0.982553 -0.148161 128 115 112
1.77959 1.16521 -3.00488 -0.198384 -0.958675 -0.203926 126 127 134
1.75643 1.16338 -3.03683 -0.0399303 -0.983074 -0.178806 122 127 137
1.75655 1.16077 -3.04493 -0.117926 -0.940042 -0.320021 127 132 143
1.72668 1.17654 -3.07994 -0.110722 -0.949753 -0.292763 54 57 61
1.72817 1.18646 -3.10174 -0.190144 -0.887901 -0.4189 40 42 44
1.72961 1.18866 -3.13333 -0.173183 -0.973891 -0.14678 28 32 36
1.70803 1.24876 -3.2528 -0.584866 -0.802322 0.119212 42 44 48
1.6084 1.24555 -3.41738 0.0735308 -0.995729 -0.0558268 91 68 63
1.58604 1.24405 -3.42178 -0.0152173 -0.998018 -0.0610688 109 87 74
1.59075 1.2463 -3.45705 0.0888188 -0.995386 -0.0363159 106 110 96
1.5598 1.24482 -3.46946 0.00990201 -0.998863 -0.0466386 125 121 113
1.55974 1.24722 -3.49783 0.0196683 -0.997116 -0.0732937 108 113 99
1.53786 1.24953 -3.51204 -0.071658 -0.988702 -0.131655 108 111 98
1.52565 1.25327 -3.54515 -0.0830291 -0.986747 -0.139412 114 96 72
1.52492 1.2555 -3.5692 -0.0806223 -0.989166 -0.12268 126 103 92
1.50416 1.2593 -3.58065 -0.111427 -0.987619 -0.110421 132 127 136
1.52219 1.25744 -3.59205 -0.0811804 -0.989135 -0.122564 127 119 126
1.50425 1.26101 -3.60477 -0.179303 -0.969504 -0.167071 127 131 145
1.50372 1.26682 -3.62221 -0.240148 -0.928338 -0.283755 130 139 156
1.47363 1.27231 -3.65148 -0.121572 -0.945224 -0.302939 129 137 149
1.46935 1.41652 -3.9074 0.164779 -0.982701 0.084537 125 128 100
1.47055 1.40724 -3.87485 0.111316 -0.985997 0.12417 117 121 94
1.44897 1.40758 -3.9059 0.0934541 -0.995015 0.0348184 123 126 99
1.44949 1.3985 -3.89628 0.193923 -0.978119 0.0753516 118 121 95
1.44859 1.41387 -3.91978 0.141458 -0.985904 0.0893521 126 129 101
1.42781 1.41142 -3.93169 0.138751 -0.985993 0.0925559 126 129 101
1.42505 1.39886 -3.95234 0.163366 -0.96927 -0.183923 133 136 104
1.38567 1.39152 -4.01209 0.0392507 -0.994923 0.0926674 128 131 98
2.24786 1.34099 -2.3973 0.0693712 -0.993005 0.0955476 125 134 148
2.09969 1.30618 -2.57657 -0.365746 -0.741333 0.562722 34 36 37
1.75559 1.16022 -3.00686 -0.0399307 -0.987563 -0.152071 125 126 135
1.73331 1.16408 -3.02465 -0.102869 -0.982775 -0.153529 120 123 134
1.73323 1.16842 -3.05555 -0.144164 -0.950479 -0.275329 128 134 146
1.72709 1.16905 -3.05402 -0.160091 -0.950203 -0.267367 127 132 145
1.68782 1.25411 -3.22873 -0.473488 -0.667577 0.574587 41 43 46
1.55959 1.24447 -3.43791 -0.0323897 -0.998244 -0.0495933 104 67 57
1.53451 1.24635 -3.48213 -0.0162701 -0.99781 -0.0641061 124 112 101
1.5147 1.24666 -3.49769 0.0852872 -0.988513 -0.124772 118 97 84
1.50515 1.25453 -3.53112 -0.0910836 -0.986319 -0.1374 106 87 57
1.50409 1.25745 -3.55587 -0.0570851 -0.994566 -0.0870574 120 98 81
1.48408 1.25921 -3.57027 -0.0785911 -0.985036 -0.153388 131 127 138
1.48454 1.26143 -3.5956 -0.151719 -0.984472 -0.088299 127 132 148
1.48381 1.26629 -3.61424 -0.102071 -0.982486 -0.15589 130 138 155
1.42788 1.41145 -3.90894 0.0938209 -0.994671 0.0427413 123 127 99
1.4042 1.40627 -3.94828 0.0866531 -0.991522 0.0968226 126 130 102
2.23598 1.36067 -2.36381 0.158204 -0.911818 0.378891 129 133 142
2.09665 1.29061 -2.53114 -0.0907792 -0.935857 0.340486 34 37 40
2.07171 1.28899 -2.55134 -0.121628 -0.975823 0.181594 28 31 32
2.0397 1.26221 -2.57171 0.145032 -0.92776 0.343842 36 37 39
1.80409 1.16668 -2.87824 -0.165971 -0.975577 0.143883 114 74 69
1.73354 1.15415 -2.96366 0.00185638 -0.989249 -0.146226 117 103 97
1.73376 1.16038 -2.9918 -0.0640788 -0.98904 -0.133016 125 124 124
1.70616 1.16473 -3.01049 -0.0969593 -0.982278 -0.160403 116 115 121
1.70648 1.1696 -3.04019 -0.136364 -0.980397 -0.142223 129 134 147
1.70555 1.16917 -3.03836 -0.142857 -0.965614 -0.217214 130 135 148
1.68553 1.18507 -3.07584 -0.180843 -0.897364 -0.402534 36 38 40
1.70466 1.17603 -3.06573 -0.145628 -0.941137 -0.305045 66 69 75
1.70211 1.18579 -3.08372 -0.225901 -0.874656 -0.42889 36 39 41
1.56441 1.24717 -3.37573 -0.151078 -0.988416 -0.0144728 129 111 107
1.5402 1.24927 -3.41618 -0.0707355 -0.997445 -0.00995579 108 52 49
1.53295 1.2447 -3.4543 -0.0140442 -0.995887 -0.0895144 98 55 47
1.52168 1.24618 -3.46787 0.120841 -0.978847 -0.165096 94 53 44
1.48368 1.2541 -3.51942 -0.0988136 -0.98949 -0.105569 111 87 55
1.4837 1.25697 -3.54437 -0.0710784 -0.990509 -0.117644 121 99 83
1.46387 1.2582 -3.55974 -0.0744831 -0.985928 -0.149661 131 127 140
1.44584 1.26641 -3.59023 -0.105515 -0.973702 -0.201916 129 137 154
1.44508 1.26671 -3.59207 -0.112332 -0.992631 -0.0454456 129 137 154
1.46444 1.2674 -3.60262 -0.165324 -0.98391 -0.0677411 130 137 154
1.42244 1.43069 -3.86002 0.0899526 -0.994881 0.0460407 116 120 93
1.42195 1.43643 -3.8753 0.0961032 -0.994366 0.0447332 122 126 97
1.40358 1.41631 -3.88842 0.0763896 -0.995039 0.0637283 120 124 96
1.40304 1.42122 -3.90455 0.10386 -0.993721 0.0416144 123 127 99
1.38164 1.41343 -3.90157 0.0890225 -0.992007 0.0894228 122 125 98
1.38127 1.41489 -3.92227 0.0839446 -0.992609 0.0876382 124 128 101
1.14778 1.41938 -4.31782 0.117294 -0.974646 0.190546 115 120 89
1.12816 1.41391 -4.32836 0.226037 -0.973848 0.0229581 115 119 89
2.11385 1.30657 -2.45979 -0.0816289 -0.875713 0.475883 32 34 36
2.11532 1.30506 -2.45973 -0.0520766 -0.893029 0.446975 32 34 36
2.12009 1.30911 -2.48115 -0.0505007 -0.95419 0.294909 30 33 35
2.09265 1.28995 -2.46951 -0.0304027 -0.940118 0.33949 27 29 31
2.1058 1.29621 -2.46454 -0.0323103 -0.907299 0.419242 31 33 35
2.09265 1.28995 -2.46951 -0.0304027 -0.940118 0.33949 27 29 31
2.09546 1.3034 -2.48359 -0.0186672 -0.964104 0.264868 25 28 30
2.09614 1.29861 -2.50666 -0.0675763 -0.938509 0.338578 33 34 36
2.08206 1.28816 -2.49639 0.0636412 -0.975674 0.209788 24 27 28
2.08522 1.28641 -2.49487 -0.0298575 -0.971592 0.234769 31 33 35
2.07929 1.29939 -2.52952 -0.0489158 -0.960467 0.274064 29 33 34
2.03097 1.25493 -2.53333 0.0370392 -0.962076 0.270256 31 34 36
2.05137 1.27461 -2.52995 -0.0225971 -0.971035 0.237866 26 29 31
2.05098 1.28097 -2.54768 -0.0534908 -0.97313 0.223958 26 29 32
2.03088 1.24985 -2.55832 -0.171066 -0.939607 0.296437 34 35 37
1.70596 1.15342 -2.95168 -0.108543 -0.984179 -0.140034 97 54 54
1.70605 1.15896 -2.98145 -0.125885 -0.980275 -0.15236 105 87 83
1.68242 1.17651 -3.05221 -0.195707 -0.94179 -0.273368 74 78 85
1.66262 1.19565 -3.07811 -0.27863 -0.936122 -0.214572 36 38 41
1.66205 1.19534 -3.07838 -0.272778 -0.937758 -0.214948 36 38 41
1.6812 1.18467 -3.0736 -0.220453 -0.913317 -0.342422 36 38 41
1.53736 1.24942 -3.36136 -0.0664558 -0.997196 -0.0344095 102 107 105
1.49046 1.24697 -3.4607 -0.0650175 -0.996663 -0.0493514 106 52 44
1.48369 1.24752 -3.49059 -0.0320784 -0.992092 -0.121345 103 63 48
1.44903 1.25661 -3.51864 -0.0537689 -0.997806 -0.0386322 113 82 51
1.4479 1.25731 -3.54507 -0.039138 -0.998769 -0.0304813 134 123 121
1.44512 1.26296 -3.56869 -0.0802801 -0.976793 -0.198571 123 127 142
1.42659 1.26661 -3.57951 -0.149982 -0.971552 -0.183283 130 137 154
1.42444 1.26944 -3.60085 -0.0227376 -0.972784 -0.230597 127 133 150
1.4164 1.26588 -3.63284 0.0162911 -0.999793 -0.0122009 129 135 143
1.40072 1.42747 -3.84982 0.0795984 -0.995165 0.0575373 111 115 88
1.38195 1.41504 -3.85218 0.111712 -0.987741 0.109028 110 115 88
1.38077 1.4173 -3.87281 0.0423357 -0.997806 0.0509087 117 121 93
1.35894 1.41117 -3.91311 0.0252139 -0.996907 0.0744397 124 128 100
1.3489 1.40523 -3.8961 0.0149502 -0.998842 0.0457354 121 125 97
1.33027 1.41454 -3.93511 0.0863542 -0.992741 0.0837188 123 128 99
1.12819 1.41792 -4.30597 0.172869 -0.971578 0.161717 116 120 88
1.10886 1.41807 -4.31241 0.151222 -0.987503 -0.0443756 114 118 86
2.09581 1.31068 -2.46172 -0.0758181 -0.926029 0.369758 29 32 34
2.07763 1.30542 -2.49711 -0.0138264 -0.943567 0.330894 23 26 28
2.03122 1.25799 -2.50272 -0.0166846 -0.969968 0.24266 23 27 29
2.01202 1.2435 -2.52221 -0.111115 -0.952127 0.284794 31 33 35
1.76517 1.16901 -2.86186 -0.159351 -0.977423 0.13875 107 46 51
1.679 1.162 -2.96014 -0.103864 -0.985215 -0.136249 111 88 84
1.66053 1.17728 -3.03912 -0.212632 -0.939546 -0.268405 79 82 90
1.64164 1.19528 -3.0681 -0.259151 -0.91201 -0.317929 35 37 40
1.66042 1.18478 -3.06193 -0.231222 -0.921667 -0.311555 36 38 41
1.46734 1.25238 -3.44024 -0.0755942 -0.994402 -0.0738299 94 41 38
1.46886 1.25372 -3.46681 -0.14947 -0.988545 -0.0209152 98 47 41
1.4458 1.25711 -3.48128 -0.109796 -0.993613 -0.026036 116 91 62
1.42801 1.25778 -3.53483 -0.148958 -0.979681 -0.134299 115 101 89
1.41014 1.26317 -3.54677 -0.185315 -0.954049 -0.235474 121 122 133
1.40991 1.26745 -3.56709 -0.231756 -0.943181 -0.238116 128 136 153
1.4267 1.26128 -3.55913 -0.0849686 -0.969634 -0.229326 125 126 140
1.35165 1.40948 -3.86774 0.0269598 -0.993415 0.111352 115 120 91
1.3291 1.40704 -3.88226 0.0833749 -0.994107 0.0692861 117 121 94
1.33305 1.41022 -3.90246 0.183459 -0.982638 -0.0276575 121 125 98
1.31796 1.41903 -3.90245 0.276377 -0.95172 -0.133584 121 125 98
1.31794 1.41901 -3.90248 0.27306 -0.953354 -0.128663 121 125 98
1.31794 1.41901 -3.90248 0.27306 -0.953354 -0.128663 121 125 98
1.10859 1.41728 -4.28493 0.182666 -0.981177 0.0626418 119 124 92
1.08763 1.41474 -4.29953 0.196629 -0.979743 0.0379492 115 120 88
1.09234 1.40712 -4.31155 0.146176 -0.978922 -0.142636 117 121 89
1.07398 1.39225 -4.30619 0.0603558 -0.995108 0.0782117 117 121 89
1.06943 1.40062 -4.29802 0.13757 -0.983496 -0.117516 117 121 90
2.07123 1.29209 -2.4234 -0.0325323 -0.900335 0.43398 38 42 45
2.0116 1.25396 -2.51272 -0.00769538 -0.978637 0.20545 22 24 26
1.81653 1.16876 -2.70197 0.303519 -0.908246 0.288037 94 39 40
1.68786 1.15104 -2.88814 -0.51507 -0.832826 -0.20274 105 56 54
1.67877 1.15489 -2.93029 -0.0387865 -0.987195 -0.15473 90 46 44
1.66184 1.15753 -2.93918 -0.282304 -0.941773 -0.182667 111 86 82
1.66307 1.16413 -2.96048 -0.182613 -0.979453 -0.0855787 124 113 107
1.64584 1.17072 -3.00437 -0.217611 -0.941871 -0.255976 128 132 143
1.64038 1.17847 -3.02594 -0.254459 -0.924143 -0.284974 85 90 99
1.64058 1.18607 -3.04896 -0.262969 -0.913378 -0.310786 36 38 41
1.61951 1.19472 -3.05927 -0.289722 -0.930535 -0.223978 35 37 39
1.44539 1.25603 -3.45329 -0.0683385 -0.997175 -0.0311907 105 65 52
1.40988 1.25999 -3.49621 -0.0439096 -0.998738 -0.0243772 116 95 75
1.41104 1.2595 -3.49904 -0.0674393 -0.996628 -0.0467461 111 89 70
1.40938 1.2607 -3.52281 -0.142654 -0.986087 -0.0853391 125 116 116
1.38858 1.26497 -3.53359 -0.219182 -0.974051 -0.0564247 123 127 142
1.38991 1.27163 -3.57636 -0.116528 -0.982332 -0.146441 124 133 150
1.36656 1.27316 -3.58213 -0.19401 -0.977827 -0.0788303 121 130 146
1.3768 1.26971 -3.58937 -0.0454019 -0.995949 -0.0776119 122 131 147
1.32251 1.42372 -3.851 0.029489 -0.997191 0.0688545 112 116 89
1.30858 1.40719 -3.8914 0.0338776 -0.992649 0.116194 121 126 98
1.28105 1.39747 -3.88895 0.0363692 -0.999128 -0.0205181 118 122 95
1.27395 1.38991 -3.91968 0.0264438 -0.998728 -0.0429326 124 128 100
1.07051 1.41258 -4.29027 0.064667 -0.996445 0.0539933 117 122 89
1.05191 1.39643 -4.28404 0.0841971 -0.983382 0.160841 119 122 91
1.05539 1.40156 -4.2943 0.0674655 -0.996893 -0.0406553 117 121 89
1.03334 1.37031 -4.30166 0.165546 -0.968764 0.184636 118 121 92
1.03902 1.38069 -4.28167 0.370132 -0.928341 -0.0344361 118 121 92
1.02934 1.36854 -4.28024 0.332798 -0.941889 -0.0457188 118 121 92
1.01505 1.36142 -4.29522 0.225755 -0.974027 0.0175119 119 123 93
2.05034 1.28581 -2.43353 -0.0243807 -0.862355 0.505717 30 33 36
2.03781 1.284 -2.44736 -0.0212985 -0.864133 0.502813 26 29 31
1.67612 1.15341 -2.87113 -0.71122 -0.700851 -0.0545319 106 53 53
1.66841 1.16165 -2.89249 -0.554218 -0.80741 -0.202318 99 56 54
1.68572 1.16683 -2.89163 -0.363566 -0.88541 -0.2896 97 49 47
1.6411 1.16704 -2.94855 -0.17889 -0.979957 -0.0876564 121 119 118
1.62325 1.17352 -2.98995 -0.228137 -0.949084 -0.217241 125 129 138
1.62379 1.17297 -2.98994 -0.239252 -0.942037 -0.235213 125 128 138
1.62066 1.18038 -3.01257 -0.298628 -0.900665 -0.315633 89 95 104
1.61984 1.18766 -3.03545 -0.287206 -0.908852 -0.302491 35 39 41
1.62238 1.20211 -3.04097 -0.430406 -0.835438 -0.341752 34 37 39
1.42262 1.25435 -3.43353 -0.183199 -0.981731 -0.0514063 94 44 40
1.4247 1.25635 -3.45904 -0.114013 -0.992967 -0.0319115 116 86 61
1.38701 1.26233 -3.50974 -0.0987978 -0.994097 -0.0448363 128 125 133
1.38738 1.26151 -3.4833 -0.0589907 -0.998256 -0.00245014 115 93 75
1.33785 1.27383 -3.59036 -0.173104 -0.949376 -0.262146 124 131 142
1.35351 1.2731 -3.60097 -0.25185 -0.933956 -0.25357 124 131 141
1.33122 1.28387 -3.61989 -0.125171 -0.961457 -0.244812 103 106 101
1.28182 1.39787 -3.86536 0.030857 -0.999458 -0.0115056 112 116 87
1.27804 1.41607 -3.88099 0.0345005 -0.998027 0.0524645 120 125 96
1.24364 1.39635 -3.91014 0.134037 -0.989917 0.0458139 124 128 99
1.05296 1.40908 -4.27698 0.0697496 -0.985927 0.151933 119 123 93
1.0534 1.41732 -4.25963 -0.0464834 -0.980555 -0.190659 120 124 93
1.00745 1.34435 -4.27053 0.459535 -0.884858 0.0765154 121 126 98
2.05312 1.29961 -2.41301 -0.0343593 -0.922515 0.384429 29 32 35
1.62547 1.17094 -2.95708 -0.278815 -0.958123 -0.0652911 110 110 112
1.62622 1.17086 -2.95609 -0.27248 -0.959858 -0.0665403 111 111 113
1.6013 1.18278 -3.00035 -0.337454 -0.894776 -0.292405 87 92 101
1.60133 1.17648 -2.97704 -0.293025 -0.931729 -0.214518 124 127 138
1.6018 1.17628 -2.97641 -0.291201 -0.934144 -0.206343 123 127 137
1.60157 1.19046 -3.02166 -0.344542 -0.883289 -0.317948 35 38 40
1.60614 1.20538 -3.02796 -0.435512 -0.826554 -0.356564 34 37 39
1.4035 1.26 -3.4203 -0.16303 -0.986607 -0.00533419 97 72 59
1.37801 1.26269 -3.46046 -0.123316 -0.992367 -0.00137734 112 82 52
1.36674 1.26305 -3.47326 -0.172093 -0.984879 -0.0199494 117 94 77
1.36599 1.26431 -3.49783 -0.14848 -0.986389 -0.0706388 126 123 132
1.36815 1.26809 -3.51905 -0.153551 -0.979986 -0.126689 120 125 139
1.32171 1.27633 -3.57901 -0.212411 -0.961585 -0.173882 124 130 143
1.34064 1.27301 -3.56703 -0.0397348 -0.994458 -0.0973355 122 130 145
1.29126 1.43077 -3.84238 0.0417031 -0.992717 0.113018 114 119 91
1.27383 1.43581 -3.84849 -0.116891 -0.993064 0.0126697 123 128 98
1.13198 1.41096 -4.06668 -0.1426 -0.731331 0.666948 120 126 95
1.02783 1.41108 -4.26394 0.0757659 -0.987768 0.136286 124 129 99
1.00929 1.40816 -4.25609 0.100635 -0.994665 0.0226788 121 126 95
0.987058 1.35794 -4.25855 0.12522 -0.985534 0.114206 123 128 99
2.38378 1.6915 -2.26073 0.389404 -0.8823 -0.264409 111 112 78
2.05218 1.33234 -2.38067 0.00488544 -0.957812 0.287353 29 33 36
1.61768 1.17369 -2.90944 -0.200533 -0.976349 -0.0808082 120 116 118
1.60143 1.17454 -2.95225 -0.250019 -0.955453 -0.156848 112 113 117
1.60245 1.17382 -2.94891 -0.216755 -0.972372 -0.0866642 112 113 117
1.58152 1.18631 -2.98782 -0.356137 -0.901494 -0.245916 81 86 95
1.55642 1.20314 -3.0502 -0.228251 -0.817433 0.528871 38 39 41
1.37659 1.2617 -3.43347 -0.174075 -0.984654 -0.0124101 114 95 70
1.34692 1.26792 -3.48429 -0.176019 -0.980959 -0.0820771 124 120 129
1.34692 1.26989 -3.50784 -0.247112 -0.961241 -0.122273 118 123 139
1.32692 1.27501 -3.51756 -0.137239 -0.989452 -0.0463817 126 135 153
1.30981 1.28295 -3.56335 -0.305977 -0.928047 -0.212382 122 129 144
1.30053 1.28895 -3.58936 -0.288851 -0.910481 -0.295954 105 109 108
1.27992 1.43459 -3.79697 0.217222 -0.974563 -0.0551476 107 112 83
1.26693 1.43048 -3.82959 0.0344344 -0.992149 0.120232 114 119 90
1.11149 1.41904 -4.0512 0.0573214 -0.99787 0.0311351 118 122 90
2.52807 1.68361 -1.97148 -0.537181 -0.836839 -0.105536 120 124 93
2.3808 1.61822 -2.15111 -0.263126 -0.799233 -0.540363 112 115 79
2.35549 1.62011 -2.18892 0.321916 -0.837074 0.442355 109 112 76
2.36577 1.67934 -2.24353 0.1068 -0.968666 -0.224231 109 111 76
2.09078 1.35515 -2.31994 0.316528 -0.860173 0.39989 130 138 154
2.05174 1.33752 -2.35676 0.0226154 -0.958481 0.284257 43 48 54
1.62136 1.1739 -2.88773 -0.247579 -0.956852 -0.152118 113 110 113
1.58197 1.17907 -2.9357 -0.268263 -0.95224 -0.145853 121 125 137
1.57858 1.18327 -2.96281 -0.341927 -0.923049 -0.176257 123 129 144
1.5822 1.18105 -2.96218 -0.28772 -0.945664 -0.15145 123 129 143
1.58054 1.18137 -2.96178 -0.286064 -0.945413 -0.15608 123 130 144
1.56106 1.19601 -2.99801 -0.318908 -0.927636 -0.194394 34 36 38
1.49208 1.25481 -3.181 -0.290168 -0.94439 -0.154693 35 36 38
1.40591 1.26127 -3.31919 -0.124775 -0.991973 -0.0205198 100 109 95
1.3555 1.26251 -3.39933 0.0373729 -0.996635 -0.0729545 105 101 87
1.35855 1.26743 -3.43801 -0.23103 -0.970057 -0.0749257 115 88 58
1.34343 1.26353 -3.46169 -0.143251 -0.986613 -0.077934 115 91 74
1.32457 1.26832 -3.47466 -0.14973 -0.985635 -0.0781317 124 120 129
1.32746 1.27307 -3.49444 -0.246201 -0.963317 -0.106793 116 122 137
1.30761 1.2781 -3.50649 -0.231084 -0.965647 -0.118855 122 131 149
1.28681 1.28298 -3.5491 -0.385679 -0.894262 -0.22704 120 128 144
1.22758 1.42619 -3.82376 0.0129318 -0.992519 0.121406 112 117 88
1.07632 1.36218 -3.97745 -0.0582567 -0.990799 0.122166 120 125 93
2.51874 1.68979 -1.98645 -0.660188 -0.744714 -0.0977379 121 124 94
2.07109 1.35296 -2.29998 0.0679282 -0.956247 0.284564 127 135 151
2.05125 1.34555 -2.33732 -0.00900897 -0.965515 0.260192 107 115 126
2.03245 1.33485 -2.36888 0.014085 -0.960429 0.278168 29 33 35
1.74066 1.1969 -2.6491 -0.256065 -0.939566 0.227258 112 77 79
1.67542 1.17929 -2.75426 -0.147879 -0.958497 0.243751 124 117 114
1.65505 1.18073 -2.76997 -0.197799 -0.943737 0.265022 125 117 121
1.56599 1.18552 -2.92346 -0.219676 -0.968735 -0.115308 126 134 150
1.5586 1.18885 -2.94945 -0.345138 -0.931261 -0.11676 120 129 144
1.56181 1.18619 -2.94778 -0.260132 -0.961326 -0.0904679 125 133 150
1.55899 1.19246 -2.97403 -0.334898 -0.933257 -0.129904 63 69 76
1.56092 1.19061 -2.9739 -0.37811 -0.896374 -0.231399 72 77 85
1.53893 1.19996 -2.98548 -0.292451 -0.950884 -0.101454 32 36 40
1.47243 1.25933 -3.16681 -0.241974 -0.960938 -0.134334 33 34 37
1.38001 1.26595 -3.33052 -0.149038 -0.987201 -0.0567596 114 121 123
1.32725 1.26781 -3.44841 -0.280851 -0.941307 -0.187255 110 84 65
1.31137 1.2731 -3.43685 -0.373875 -0.91637 -0.143118 111 89 72
1.30971 1.27455 -3.4593 -0.296171 -0.940831 -0.16468 122 116 123
1.2915 1.2836 -3.49148 -0.454512 -0.890133 -0.0329009 121 131 150
1.28986 1.28461 -3.51573 -0.414367 -0.903419 -0.110158 120 131 152
1.19513 1.41779 -3.82473 0.0401723 -0.998977 -0.0207478 113 117 88
2.3354 1.62456 -2.16371 -0.0251111 -0.965178 0.260385 113 116 82
2.01222 1.33762 -2.35496 0.0213469 -0.963383 0.267278 31 34 36
1.99399 1.33744 -2.37427 0.173979 -0.928072 0.329262 32 34 33
1.73892 1.19716 -2.64491 -0.158395 -0.960493 0.228832 108 78 78
1.63519 1.19226 -2.77732 -0.138123 -0.93566 0.32475 128 133 144
1.47486 1.25699 -3.14042 -0.142291 -0.970743 -0.193418 32 32 34
1.44974 1.26254 -3.15401 -0.14372 -0.984919 -0.0963313 33 36 37
1.34385 1.2656 -3.37126 -0.149798 -0.984223 -0.0941609 122 125 133
1.31391 1.28068 -3.40471 -0.285469 -0.956252 -0.0639458 108 76 44
1.31582 1.27403 -3.41007 -0.342772 -0.925531 -0.160931 107 76 43
1.3197 1.26944 -3.38932 -0.261903 -0.912535 -0.314143 111 91 72
1.29287 1.27883 -3.44922 -0.274046 -0.961493 -0.0207264 121 120 132
1.29748 1.28422 -3.47126 -0.357956 -0.902145 -0.240837 115 120 135
1.27382 1.28791 -3.50038 -0.402357 -0.911593 -0.0842996 115 126 146
1.27914 1.29013 -3.48143 -0.284181 -0.955486 -0.0792984 117 126 144
1.18052 1.41732 -3.79574 0.0394274 -0.998333 -0.0421597 110 114 85
1.15348 1.42551 -3.82756 0.0474146 -0.99885 0.00713864 117 121 91
1.15828 1.43153 -3.84403 0.0186261 -0.999826 0.000408143 120 125 93
1.1324 1.41619 -3.87645 0.0530853 -0.998381 -0.0204185 123 127 98
2.3238 1.63821 -2.13931 0.0561939 -0.909589 -0.411691 111 114 76
2.28653 1.66451 -2.21975 -0.109802 -0.993415 0.0327105 113 115 80
2.29311 1.67286 -2.2135 -0.113973 -0.992971 0.0319321 114 116 82
1.97353 1.33808 -2.35812 0.0715457 -0.959114 0.273826 26 29 32
1.74412 1.20965 -2.59842 -0.12883 -0.961737 0.241796 125 124 135
1.51241 1.20134 -2.97243 -0.193001 -0.977498 -0.0851323 37 40 42
1.47284 1.24299 -3.0527 0.342279 -0.900391 -0.268592 38 39 38
1.44721 1.25443 -3.13409 -0.375778 -0.887685 -0.266093 33 35 35
1.42469 1.26826 -3.16154 -0.0384647 -0.997674 -0.0562736 83 86 94
1.37884 1.26473 -3.24284 -0.0378642 -0.994798 -0.0945721 79 52 45
1.36252 1.26994 -3.26717 -0.248677 -0.963228 -0.101744 95 91 101
1.32432 1.26853 -3.35934 -0.223087 -0.967264 -0.120966 122 124 138
1.30375 1.27728 -3.39246 -0.196049 -0.96565 -0.170544 103 77 50
1.30329 1.27449 -3.36834 -0.150529 -0.979896 -0.130937 114 106 109
1.27467 1.28513 -3.46151 -0.269094 -0.956425 -0.113314 109 115 131
1.12986 1.39203 -3.79029 0.0407927 -0.99916 0.00379729 109 114 84
1.12579 1.41421 -3.82713 0.26434 -0.96261 -0.0592114 118 121 93
1.11104 1.42082 -3.85002 0.0475443 -0.998294 -0.0338892 121 125 95
0.87307 1.35086 -4.15308 -0.134865 -0.847569 0.513262 127 133 105
2.28544 1.64909 -2.15254 0.0558699 -0.947858 -0.313757 108 111 75
2.29132 1.65108 -2.17873 0.0354077 -0.982573 0.182475 109 112 78
2.28309 1.65712 -2.20259 -0.108305 -0.993593 0.032307 110 112 77
1.4469 1.2564 -3.076 -0.0416954 -0.943161 -0.329709 32 33 35
1.44843 1.23894 -3.05322 -0.249135 -0.947402 -0.200899 34 36 38
1.42499 1.26595 -3.13128 -0.037513 -0.995145 -0.0909934 33 35 37
1.3992 1.2706 -3.17742 -0.00680085 -0.99623 -0.0864875 89 88 95
1.36257 1.26684 -3.23681 0.170673 -0.98163 -0.0852877 79 66 67
1.30412 1.26946 -3.31807 0.107874 -0.98742 -0.115604 124 128 144
1.30349 1.27083 -3.34552 -0.147409 -0.980383 -0.13084 122 124 140
1.28331 1.27476 -3.35844 -0.0605544 -0.984942 -0.161934 129 129 142
1.28552 1.27732 -3.38415 -0.140809 -0.9803 -0.138506 115 99 96
1.25684 1.28826 -3.4285 -0.142996 -0.989671 -0.0101631 126 128 141
1.23434 1.28894 -3.44779 -0.179148 -0.96749 -0.178522 130 136 150
0.982405 1.41217 -3.98973 -0.015144 -0.974975 -0.221797 116 120 90
0.840445 1.3722 -4.18387 -0.227363 -0.844703 0.484543 125 131 102
2.35208 1.67257 -2.04216 -0.039893 -0.999102 0.0142528 111 114 76
2.26089 1.65255 -2.1663 -0.00152102 -0.999348 0.0360861 104 106 70
1.47203 1.21479 -2.97648 -0.592324 -0.767966 0.243681 101 105 115
1.4234 1.25107 -3.08652 -0.379015 -0.917795 -0.118322 33 36 38
1.40021 1.26697 -3.11499 -0.250642 -0.945161 -0.209405 36 38 42
1.40078 1.27131 -3.14137 -0.0671978 -0.992429 -0.102811 87 89 96
1.37428 1.27124 -3.16193 -0.0285388 -0.998026 -0.0559391 122 129 141
1.3357 1.26219 -3.21889 0.199003 -0.977111 -0.0751844 126 128 126
1.33547 1.26654 -3.24669 0.107445 -0.99178 -0.0694896 120 122 132
1.28262 1.27228 -3.33307 0.0699298 -0.994275 -0.0807903 130 135 147
1.26226 1.27785 -3.37046 -0.0211793 -0.996402 -0.0820684 136 135 148
1.265 1.29272 -3.37471 -0.220026 -0.957819 0.184855 123 125 139
1.25933 1.28114 -3.35585 -0.0130648 -0.990727 -0.13524 127 130 145
1.25737 1.28952 -3.40292 -0.194894 -0.978743 -0.0638613 125 120 123
1.23413 1.29272 -3.41553 -0.182265 -0.98323 0.00624101 113 117 126
1.22145 1.29388 -3.43817 -0.176098 -0.97957 -0.0971196 122 128 139
1.21308 1.29408 -3.45384 -0.338926 -0.915824 -0.215395 120 124 134
0.968149 1.41367 -3.99986 -0.0109742 -0.990822 0.134725 116 121 88
0.809234 1.36904 -4.19072 -0.211593 -0.901731 0.376974 125 130 102
2.23885 1.65454 -2.15259 0.0960441 -0.92557 -0.36619 108 109 74
1.8025 1.26989 -2.44772 0.00795808 -0.903843 0.427789 31 33 34
1.49814 1.23277 -2.90957 -0.788856 -0.233854 0.568347 16 15 14
1.49193 1.24644 -2.90714 -0.817184 -0.276669 0.505633 7 8 8
1.41328 1.24721 -3.04249 -0.626814 -0.777565 0.0499685 111 116 125
1.37553 1.27136 -3.12694 -0.0268311 -0.995549 -0.090342 73 77 83
1.37893 1.27137 -3.13176 -0.38362 -0.923345 -0.0164299 84 89 97
1.35895 1.27943 -3.15635 -0.167985 -0.964099 0.205654 125 132 149
1.31415 1.28198 -3.25802 -0.156183 -0.987303 -0.0289656 128 133 148
1.2285 1.29987 -3.41873 -0.0872099 -0.814185 0.574019 114 120 130
1.2285 1.29987 -3.41873 -0.0872099 -0.814185 0.574019 114 120 130
1.2054 1.30172 -3.4464 -0.611471 -0.760059 0.220029 113 119 129
1.1122 1.43436 -3.70488 0.0562046 -0.995456 0.0768668 111 116 88
1.02613 1.37632 -3.80022 0.2571 -0.965681 -0.0368658 118 122 94
1.02791 1.39006 -3.80828 0.265873 -0.963279 -0.0374837 122 126 96
0.765231 1.37445 -4.22563 -0.119058 -0.855789 0.503439 125 130 102
0.727922 1.36982 -4.24934 -0.273905 -0.691948 0.66797 126 131 104
2.23683 1.64397 -2.13329 -0.0971878 -0.994899 0.0270122 113 115 83
1.93437 1.34711 -2.26742 0.0887147 -0.996051 -0.00345811 117 128 145
1.45988 1.26817 -2.95649 -0.680596 -0.353116 0.641949 10 12 12
1.40242 1.25972 -3.04228 -0.785036 -0.598686 0.159041 115 119 126
1.37747 1.27199 -3.08227 -0.476877 -0.869221 -0.13055 116 121 130
1.32979 1.289 -3.16617 -0.643295 -0.685985 0.339995 123 130 143
1.21395 1.2979 -3.37366 -0.776867 -0.513505 0.364404 107 114 121
1.19514 1.31073 -3.39936 -0.67389 -0.722093 0.15638 106 112 115
1.19752 1.30199 -3.41152 -0.667567 -0.740882 0.0738091 107 113 119
1.19291 1.3071 -3.42837 -0.493083 -0.86661 -0.0765286 106 113 119
1.19255 1.29873 -3.40447 -0.452314 -0.890246 0.0536173 106 112 118
1.18597 1.32201 -3.43583 -0.739368 -0.673114 -0.0159103 104 109 111
1.18535 1.31203 -3.44376 -0.653576 -0.728582 -0.204955 105 110 113
1.11845 1.44102 -3.66351 0.0428856 -0.988657 -0.143935 105 109 82
1.07967 1.44092 -3.72787 0.374742 -0.724627 0.578347 122 128 100
2.21592 1.64479 -2.12176 -0.101386 -0.993502 0.0517236 116 118 87
2.21136 1.65045 -2.12124 0.0589725 -0.996791 0.0541348 113 115 84
2.18965 1.64126 -2.15092 -0.0373562 -0.99168 0.123187 109 111 79
2.16968 1.63902 -2.16026 -0.030981 -0.986218 0.162526 102 104 71
1.57876 1.27765 -2.71644 -0.799611 -0.440274 0.408389 6 7 5
1.41333 1.26073 -2.9954 -0.703818 -0.577027 0.414344 117 119 125
1.38402 1.27833 -3.05578 -0.889249 -0.401324 0.21949 105 111 118
1.3263 1.29982 -3.13523 -0.576065 -0.784277 0.230343 110 117 125
1.32672 1.30076 -3.1585 -0.75418 -0.306614 0.580689 113 119 128
1.31776 1.31395 -3.17658 -0.730115 -0.374834 0.571342 109 114 120
1.23523 1.31072 -3.31342 -0.771816 -0.597393 0.217766 103 110 115
1.23041 1.30999 -3.33183 -0.78324 -0.598068 0.169855 105 111 118
1.21351 1.29922 -3.35407 -0.724924 -0.663099 0.186507 105 112 119
1.19827 1.33475 -3.38057 -0.686812 -0.586756 0.428961 99 104 102
1.20899 1.32287 -3.3797 -0.628265 -0.645505 0.434289 102 108 111
1.19715 1.34285 -3.4015 -0.729952 -0.62067 0.286251 99 104 99
1.20506 1.32873 -3.39899 -0.534169 -0.807948 0.248766 103 108 109
1.18782 1.34558 -3.41361 -0.861394 -0.289876 0.4171 99 103 96
1.19478 1.3312 -3.41041 -0.765321 -0.601658 0.228675 103 108 105
1.17634 1.33486 -3.43708 -0.733683 -0.679483 -0.00358152 100 105 101
1.11671 1.46328 -3.64158 0.00853646 -0.982171 0.187795 106 111 82
2.17211 1.65046 -2.1292 -0.0464703 -0.998583 0.025914 115 118 87
1.57796 1.29082 -2.72713 -0.819667 -0.501571 0.276717 5 6 4
1.38221 1.29621 -3.02712 -0.723754 -0.557649 0.406458 107 110 115
1.30984 1.32003 -3.16828 -0.755636 -0.481338 0.444216 105 110 111
1.31019 1.319 -3.16913 -0.722079 -0.497856 0.480356 105 111 112
1.30393 1.33562 -3.16689 -0.82015 -0.421668 0.386716 103 106 100
1.23486 1.32004 -3.2993 -0.743743 -0.641364 0.188409 100 108 113
1.2091 1.33494 -3.33445 -0.559297 -0.828946 0.00596625 103 109 118
1.20409 1.34149 -3.34931 -0.481301 -0.867248 -0.127399 96 103 108
1.20165 1.34684 -3.36932 -0.615029 -0.762866 -0.199436 95 101 102
1.18619 1.36338 -3.41703 -0.753617 -0.61584 0.229789 95 99 90
1.17283 1.38324 -3.43169 -0.885357 -0.292394 0.361453 92 95 89
1.17856 1.36833 -3.43112 -0.853046 -0.377174 0.360628 94 98 86
1.37989 1.30242 -3.01135 -0.868491 -0.395538 0.298786 101 103 103
1.37332 1.31609 -3.01135 -0.861533 -0.37561 0.341581 90 90 85
1.37305 1.31736 -3.01098 -0.872615 -0.384042 0.301754 90 90 84
1.31072 1.31979 -3.12594 -0.831435 -0.268686 0.486336 104 108 105
1.30722 1.33672 -3.12523 -0.876461 -0.220469 0.42803 101 104 94
1.23932 1.34432 -3.26043 -0.302813 -0.703188 0.643297 112 120 132
1.19184 1.3436 -3.30838 -0.817493 -0.499268 0.287117 108 114 121
1.20688 1.33469 -3.30833 -0.546718 -0.834321 0.0707611 115 123 136
1.19124 1.3429 -3.33434 -0.632396 -0.768067 0.100738 110 116 125
1.18844 1.35002 -3.34735 -0.575018 -0.818113 -0.00672078 103 110 119
1.18865 1.34991 -3.34567 -0.564951 -0.824866 -0.020633 104 111 119
1.17232 1.39174 -3.41839 -0.64955 -0.75953 -0.0346449 95 99 99
1.11131 1.49383 -3.61313 0.0961684 -0.485519 0.868921 105 111 76
0.989576 1.42833 -3.73249 0.0445009 -0.990384 0.130991 120 125 95
1.37587 1.32552 -2.99756 -0.894925 -0.324912 0.305845 96 93 85
1.1847 1.34828 -3.32118 -0.784899 -0.575342 0.230032 105 111 115
1.17857 1.35335 -3.33432 -0.761427 -0.631984 0.14431 104 111 113
0.97824 1.42136 -3.70902 0.0830627 -0.996469 -0.012207 117 121 95
2.24065 1.68124 -1.95123 0.175364 -0.969273 0.172504 128 132 100
1.54841 1.33259 -2.69861 -0.607139 -0.792712 -0.054685 100 105 110
1.37915 1.35353 -2.97643 -0.890924 -0.194129 0.41057 92 85 66
2.21507 1.6642 -1.92569 -0.126886 -0.991915 0.00232026 129 133 100
1.22648 1.43646 -3.24259 -0.860293 -0.143414 0.489213 72 74 59
1.10489 1.54681 -3.51814 0.0922652 -0.984275 -0.150631 102 107 74
1.34825 1.46485 -3.0498 -0.881417 -0.282113 0.378835 97 98 88
1.31357 1.48282 -3.08908 -0.881636 -0.346782 0.320093 94 98 80
1.30493 1.47266 -3.12586 -0.799343 -0.150501 0.581721 104 107 100
1.28336 1.45778 -3.13678 -0.732649 -0.0497957 0.678783 99 103 97
1.20019 1.51816 -3.29902 -0.70195 -0.554735 0.446694 87 89 72
1.14726 1.53104 -3.39627 -0.757559 -0.127098 0.640274 39 40 22
1.12493 1.56718 -3.45988 -0.280206 -0.90903 0.308464 90 94 65
1.13401 1.55747 -3.46561 -0.77672 -0.543996 0.317452 76 78 51
1.69912 1.38412 -2.38753 -0.672824 -0.310999 0.671258 102 107 103
1.70282 1.39801 -2.39396 -0.832304 -0.239255 0.500026 101 105 100
1.66601 1.3924 -2.43836 -0.911522 -0.128182 0.390766 102 105 100
1.61663 1.39972 -2.52969 -0.766944 -0.463761 0.443535 101 103 93
1.59392 1.40706 -2.551 -0.867458 -0.229078 0.441634 100 102 89
1.39067 1.48137 -2.95951 -0.780019 -0.479246 0.402362 99 91 81
1.39982 1.4771 -2.94608 -0.826445 -0.361073 0.431989 93 77 64
1.33826 1.50831 -3.04733 -0.833269 -0.380719 0.400893 90 93 70
1.33959 1.48904 -3.04802 -0.852373 -0.295117 0.431702 96 99 82
1.21691 1.51107 -3.25297 -0.893011 -0.202938 0.40168 77 79 62
1.16263 1.56595 -3.36177 -0.351274 -0.552932 0.755562 31 34 18
1.16255 1.54927 -3.37212 -0.405139 -0.434698 0.804301 24 26 13
1.14722 1.55155 -3.40192 -0.854297 -0.313726 0.41443 46 48 29
1.11889 1.55806 -3.43135 -0.435544 -0.799991 0.412692 81 84 57
1.10248 1.57461 -3.46978 -0.302815 -0.944963 0.123885 100 105 73
1.08431 1.56545 -3.48262 -0.055403 -0.988265 -0.142346 103 108 76
2.09873 1.65758 -1.98282 0.368503 -0.872652 0.320442 127 129 95
1.48507 1.48336 -2.74435 -0.856644 -0.178797 0.483935 89 74 61
1.49797 1.47707 -2.72965 -0.887864 -0.151592 0.434417 74 45 34
1.40307 1.50109 -2.91861 -0.892397 -0.335784 0.301458 106 106 95
1.21586 1.54357 -3.24637 -0.876909 -0.390212 0.280653 66 67 54
1.13709 1.59911 -3.40417 -0.4029 -0.867203 0.292628 92 96 68
1.14421 1.59031 -3.3931 -0.476369 -0.773356 0.418321 83 87 62
1.09813 1.58038 -3.43316 -0.0672168 -0.936685 0.343662 98 103 73
1.11249 1.56011 -3.41119 -0.467503 -0.84384 0.26339 82 87 60
1.09951 1.56858 -3.44414 -0.23193 -0.873295 0.428445 96 100 70
1.06817 1.56771 -3.47272 -0.130405 -0.983516 -0.125261 105 110 77
1.04627 1.54289 -3.48594 -0.0686634 -0.981292 -0.179867 105 110 80
1.02482 1.54326 -3.49388 -0.162776 -0.93436 -0.31698 108 112 82
1.02341 1.53391 -3.52841 -0.210464 -0.974293 -0.0803621 108 112 83
1.5741 1.47833 -2.56665 -0.908837 -0.194703 0.368926 94 95 86
1.5028 1.522 -2.72772 -0.851132 -0.332729 0.406036 105 104 97
1.50328 1.51074 -2.71827 -0.9038 -0.179842 0.388334 98 96 87
1.39711 1.58482 -2.95281 -0.728221 -0.545955 0.414279 69 69 44
1.35526 1.59135 -3.01347 -0.604518 -0.72889 0.321368 85 86 57
1.27261 1.60591 -3.13686 -0.513098 -0.699629 0.497242 88 92 65
1.26721 1.61064 -3.14639 -0.373155 -0.84724 0.378074 89 93 65
1.24152 1.60183 -3.19267 0.110451 -0.975642 0.189533 76 80 57
1.16236 1.60026 -3.30263 -0.404766 -0.875038 0.265467 82 87 66
1.13155 1.60185 -3.38003 -0.0893945 -0.933281 0.347844 94 99 74
1.0783 1.58667 -3.42064 -0.106289 -0.905601 0.410597 105 109 81
1.05435 1.56072 -3.46135 -0.0980932 -0.965339 -0.241863 104 109 78
1.58965 1.45615 -2.51519 -0.924776 -0.238496 0.296495 105 108 104
1.57538 1.48744 -2.55144 -0.952123 -0.292119 0.0901556 101 103 96
1.56588 1.49518 -2.56654 -0.919347 -0.331839 0.211387 98 100 92
1.55699 1.52174 -2.62559 -0.646793 -0.535605 0.542943 93 94 83
1.54994 1.52667 -2.64128 -0.540704 -0.671583 0.506572 98 99 87
1.44568 1.59049 -2.85416 -0.720657 -0.599749 0.347786 81 81 57
1.42917 1.60086 -2.85348 -0.706031 -0.609819 0.360056 77 79 51
1.42903 1.60077 -2.85383 -0.705487 -0.606337 0.366938 77 79 51
1.43552 1.59339 -2.86871 -0.678455 -0.668441 0.304772 70 71 46
1.44497 1.59004 -2.85444 -0.728101 -0.583424 0.359839 81 81 56
1.41404 1.59977 -2.89637 -0.682168 -0.635939 0.360872 69 71 44
1.41414 1.59978 -2.89614 -0.683354 -0.633663 0.362627 69 71 44
1.383 1.60701 -2.9386 -0.666849 -0.681874 0.300598 95 98 66
1.38277 1.60728 -2.93835 -0.678287 -0.679635 0.279326 96 98 67
1.38568 1.59781 -2.95271 -0.723097 -0.586516 0.36487 77 78 50
1.27966 1.61329 -3.11561 -0.400524 -0.913489 0.071548 94 98 65
1.27261 1.62283 -3.1328 -0.456087 -0.834664 0.308741 93 98 66
1.17832 1.59118 -3.22577 -0.163246 -0.967197 -0.194628 94 99 72
1.18156 1.60239 -3.25643 -0.058821 -0.971456 -0.229813 85 90 64
1.16331 1.61966 -3.30117 -0.361716 -0.912859 0.189342 94 99 73
1.14621 1.62843 -3.32322 -0.36275 -0.802588 0.473567 102 106 79
1.13062 1.63002 -3.33386 -0.34099 -0.740287 0.579397 104 109 78
1.12414 1.63112 -3.34465 -0.458781 -0.754385 0.469492 105 110 79
1.59009 1.49423 -2.48516 -0.941912 -0.318593 0.1063 63 65 50
1.56002 1.5431 -2.5979 -0.910695 -0.258352 0.322319 102 103 91
1.50494 1.57458 -2.71189 -0.771921 -0.611553 -0.173614 89 91 68
1.47023 1.60603 -2.76671 -0.70827 -0.583881 0.396782 62 63 37
1.45492 1.61821 -2.79732 -0.778112 -0.488985 0.394253 88 89 59
1.46105 1.59796 -2.78974 -0.886737 -0.213349 0.410097 66 67 41
1.4624 1.60204 -2.7971 -0.861839 -0.283053 0.42085 66 66 39
1.44517 1.61296 -2.82559 -0.801991 -0.41095 0.43351 86 87 58
1.45257 1.60649 -2.81129 -0.824869 -0.372754 0.425024 70 71 43
1.41255 1.60998 -2.88194 -0.691572 -0.653948 0.306725 91 93 63
1.4127 1.61032 -2.88227 -0.707051 -0.638135 0.304734 91 93 63
1.39006 1.61241 -2.91055 -0.593461 -0.762142 0.258734 99 102 69
1.38617 1.61203 -2.90911 -0.587541 -0.768708 0.252753 100 103 70
1.38073 1.6168 -2.92436 -0.641629 -0.718881 0.267437 102 106 72
1.38073 1.61713 -2.92404 -0.622691 -0.727956 0.286943 102 106 72
1.2921 1.61465 -3.06583 -0.56797 -0.783428 0.25229 103 108 72
1.17533 1.60837 -3.22685 -0.108153 -0.993414 -0.0378469 100 105 75
1.16673 1.6039 -3.23992 -0.299238 -0.946857 -0.117973 100 105 76
1.15385 1.60444 -3.25448 -0.118166 -0.98062 -0.156273 100 105 74
1.14345 1.60687 -3.24474 -0.331876 -0.915285 -0.22828 105 109 78
1.13916 1.62123 -3.29618 -0.382629 -0.921522 -0.0662735 103 107 80
1.03544 1.58079 -3.38722 -0.0834907 -0.993925 -0.0717103 107 111 82
0.840446 1.49493 -3.6212 -0.243395 -0.893538 0.377291 115 120 90
0.834806 1.51368 -3.62807 0.102668 -0.994627 0.0132971 118 123 88
1.56199 1.58721 -2.58946 -0.701725 -0.454342 0.548777 81 82 62
1.55665 1.59798 -2.60818 -0.768467 -0.333864 0.545888 81 83 60
1.51308 1.61656 -2.66452 -0.715773 -0.623911 0.313693 80 82 55
1.24703 1.62221 -3.06697 -0.280925 -0.946753 0.157291 106 111 75
1.15272 1.6089 -3.2221 -0.117055 -0.979412 -0.164467 106 110 77
1.14292 1.60011 -3.20499 -0.106219 -0.992935 0.0528902 107 113 78
1.12854 1.61689 -3.26907 -0.28355 -0.87948 -0.382248 106 110 80
1.08731 1.60734 -3.29203 -0.0695468 -0.991096 -0.113544 108 113 84
1.07361 1.59808 -3.31124 -0.237507 -0.953954 0.183202 108 113 84
1.06568 1.60879 -3.32366 0.0264245 -0.994663 0.099739 109 114 83
1.01386 1.57786 -3.39346 -0.285479 -0.957881 -0.0310772 110 115 85
1.60304 1.5299 -2.43615 -0.612264 -0.397102 0.683698 15 17 9
1.59023 1.49864 -2.44147 -0.602909 -0.780782 -0.163953 18 20 11
1.57453 1.52583 -2.48387 -0.930705 -0.36016 -0.0638193 23 24 15
1.24269 1.61439 -3.02822 0.0291694 -0.998537 -0.045527 108 112 75
1.24211 1.61247 -3.03144 0.0258476 -0.998088 -0.0561444 108 112 75
1.10059 1.56388 -3.19919 -0.355993 -0.916783 0.181048 110 114 83
1.09608 1.60713 -3.23493 -0.102743 -0.982664 -0.154324 110 114 83
1.09638 1.61088 -3.25759 -0.0466698 -0.969545 -0.240425 110 114 83
1.04279 1.59423 -3.30053 -0.203948 -0.954594 -0.217152 112 117 86
0.992853 1.57888 -3.39816 -0.205889 -0.959455 -0.192497 111 116 87
0.863669 1.52821 -3.53655 -0.258238 -0.934369 0.245494 114 120 85
0.863136 1.51315 -3.52459 -0.259863 -0.955072 0.142508 114 119 85
0.85488 1.51614 -3.55356 -0.30841 -0.68738 0.657565 114 119 84
0.816072 1.51534 -3.60186 0.0523041 -0.965006 0.256959 116 122 88
1.62951 1.6543 -2.46634 -0.786002 -0.322571 0.527398 9 10 4
1.55559 1.64291 -2.5765 -0.747715 -0.616682 0.246225 62 63 40
1.37833 1.62036 -2.79223 -0.368213 -0.9178 -0.148533 106 109 75
1.08166 1.56849 -3.19136 -0.272935 -0.877393 0.394572 114 118 90
1.06831 1.57548 -3.2114 -0.00879437 -0.996832 0.0790459 116 120 87
1.03367 1.60689 -3.31736 -0.338781 -0.892273 -0.298455 113 117 86
1.005 1.57586 -3.31873 0.0883115 -0.96474 0.247947 116 121 93
0.94573 1.56634 -3.41641 -0.0991021 -0.903731 0.416473 118 123 93
0.934865 1.57029 -3.43115 -0.0857621 -0.918957 0.38492 120 125 93
0.820481 1.53782 -3.56555 -0.387779 -0.59521 0.703813 118 122 89
1.67988 1.68878 -2.37206 -0.562702 -0.715686 0.413714 14 15 8
1.63619 1.71461 -2.45001 -0.728425 -0.48934 0.479524 19 20 11
1.6316 1.69891 -2.46457 -0.730616 -0.168576 0.661651 13 14 7
1.4663 1.62224 -2.62894 -0.0462208 -0.931812 -0.359987 98 101 70
1.45805 1.62462 -2.6588 -0.0265914 -0.961096 -0.274933 101 104 73
1.43526 1.61904 -2.68258 -0.140463 -0.943557 -0.29995 106 109 76
1.30563 1.5767 -2.83126 -0.0914536 -0.975292 -0.2011 109 110 76
1.3063 1.57897 -2.83018 -0.0857269 -0.976964 -0.195431 110 111 76
1.30556 1.57765 -2.83076 -0.0907256 -0.975412 -0.200847 110 111 76
1.30563 1.5767 -2.83126 -0.0914536 -0.975292 -0.2011 109 110 76
1.3063 1.57897 -2.83018 -0.0857269 -0.976964 -0.195431 110 111 76
1.30556 1.57765 -2.83076 -0.0907256 -0.975412 -0.200847 110 111 76
1.70287 1.6896 -2.29576 -0.392526 -0.616088 0.682905 48 48 29
1.67185 1.73325 -2.39039 -0.458784 -0.831287 0.313813 29 32 20
1.44597 1.62983 -2.64126 -0.0951766 -0.856888 -0.50664 101 104 71
1.28723 1.55709 -2.82161 -0.0853767 -0.932382 -0.351248 107 109 76
1.28102 1.58415 -2.85881 -0.229041 -0.912224 -0.339689 109 111 76
1.25611 1.57303 -2.85831 -0.203067 -0.927263 -0.314559 115 117 83
1.04793 1.58146 -3.1688 0.0558607 -0.99842 -0.0060109 119 123 91
1.04686 1.58314 -3.19327 -0.0199728 -0.996286 0.0837547 121 126 94
0.961431 1.55977 -3.28149 -0.135541 -0.976806 -0.165765 117 122 87
0.961431 1.55977 -3.28149 -0.135541 -0.976806 -0.165765 117 121 87
0.94068 1.55031 -3.30342 0.196706 -0.899812 -0.389417 117 120 88
0.918351 1.56591 -3.3382 0.0315025 -0.999295 -0.0204225 121 125 94
0.876912 1.55802 -3.40694 0.0398805 -0.977719 0.206096 121 126 94
0.876912 1.55802 -3.40694 0.0398805 -0.977719 0.206096 122 126 97
0.85186 1.53953 -3.43034 -0.0123764 -0.97672 0.214161 120 124 92
1.75081 1.69684 -2.1977 -0.0769815 -0.988508 -0.130097 82 86 59
1.70947 1.70699 -2.2839 -0.548369 -0.778096 0.306362 65 66 46
1.69875 1.70603 -2.28718 -0.485047 -0.829909 0.275645 67 69 48
1.58052 1.74903 -2.47937 -0.555085 -0.658837 0.507755 80 83 59
1.10816 1.54651 -3.02212 -0.157432 -0.917889 -0.364274 115 118 84
1.09085 1.5646 -3.05238 -0.12904 -0.906795 -0.401338 119 122 89
0.936729 1.56422 -3.28426 0.0886592 -0.994366 0.058096 122 126 93
0.934595 1.54596 -3.28045 -0.355972 -0.93446 -0.00827739 120 124 91
0.917412 1.56469 -3.31163 -0.0610618 -0.960627 -0.271049 119 123 92
0.857204 1.54898 -3.40992 0.0597635 -0.970722 0.232654 123 129 101
1.76298 1.68558 -2.12738 -0.202418 -0.970628 0.130033 103 105 76
1.70463 1.71627 -2.2653 -0.632254 -0.759114 0.154923 80 83 61
1.20316 1.5349 -2.8396 -0.00165078 -0.987453 -0.157905 114 115 83
1.19283 1.54897 -2.88087 -0.0681441 -0.983462 -0.167805 117 120 85
1.09119 1.55055 -2.9979 -0.218468 -0.93746 -0.271 118 120 88
1.09116 1.55269 -3.01422 -0.229807 -0.927379 -0.295225 121 124 93
1.09056 1.55297 -3.03039 -0.110385 -0.912747 -0.39333 117 120 89
1.07052 1.54714 -3.0322 -0.123606 -0.892373 -0.434041 120 124 92
1.0711 1.56245 -3.05597 -0.199766 -0.873137 -0.444664 124 127 94
1.07067 1.56398 -3.0481 0.0311089 -0.977491 -0.20867 124 127 94
0.97566 1.53664 -3.17083 -0.0182357 -0.978316 -0.206314 123 127 95
1.77889 1.70276 -2.1058 -0.23501 -0.942299 0.238418 105 108 79
1.75158 1.68367 -2.11725 -0.0673314 -0.971862 -0.225721 107 110 80
1.68132 1.68931 -2.22325 -0.0639066 -0.9464 -0.316611 93 96 71
