ply
format ascii 1.0
element vertex 717
property float x
property float y
property float z
property float nx
property float ny
property float nz
property uchar diffuse_red
property uchar diffuse_green
property uchar diffuse_blue
end_header
1.57326 1.55014 -2.80391 -0.107689 -0.932358 -0.345126 121 125 96
1.61178 1.52412 -2.83242 -0.350371 -0.726443 -0.591203 123 127 100
1.70085 1.54125 -2.81574 0.113671 -0.342295 -0.932692 124 128 102
1.73129 1.53384 -2.8273 0.17896 -0.599687 -0.779967 125 128 103
1.76212 1.54082 -2.81637 0.0151192 -0.0759749 -0.996995 124 128 104
1.84443 1.53177 -2.82035 0.313849 -0.658728 -0.683796 123 127 103
1.862 1.54217 -2.79867 0.420634 -0.648688 -0.634248 123 127 103
1.87052 1.53567 -2.7961 0.412982 -0.664743 -0.622545 123 127 104
1.87052 1.53567 -2.7961 0.412982 -0.664743 -0.622545 123 127 104
1.87052 1.53567 -2.7961 0.413001 -0.66473 -0.622546 123 127 103
1.87547 1.52032 -2.85656 0.419272 -0.629558 -0.654116 122 126 102
1.89932 1.52228 -2.83622 0.417553 -0.628441 -0.656286 122 127 102
0.264862 1.15531 -3.62335 -0.00353046 -0.996138 -0.0877261 101 67 65
0.316103 1.14027 -3.67448 0.0771573 -0.994125 -0.0759151 92 52 48
0.314191 1.14572 -3.64007 -0.0218482 -0.99588 -0.0880051 85 60 59
0.344222 1.14505 -3.63294 0.00660385 -0.991445 -0.13036 37 34 36
0.338126 1.14625 -3.6595 0.0647329 -0.992278 -0.1058 80 58 57
0.383979 1.13882 -3.6595 -0.106616 -0.967996 -0.227195 32 35 38
0.406541 1.13982 -3.6716 -0.112477 -0.969549 -0.217538 31 33 36
0.441386 1.12575 -3.69722 -0.311511 -0.664241 -0.679518 30 33 36
0.479178 1.11618 -3.7208 -0.570831 -0.706709 -0.417989 31 34 36
0.553308 1.11244 -3.7165 0.757354 -0.583712 -0.292737 30 32 35
0.571854 1.11007 -3.70641 0.24425 -0.873675 -0.420754 31 34 37
0.590148 1.11751 -3.71572 0.246735 -0.826237 -0.506413 38 41 46
0.592249 1.1172 -3.71471 0.249222 -0.825902 -0.505742 41 43 49
0.60862 1.11599 -3.70178 0.177838 -0.851576 -0.493145 70 74 80
0.636978 1.12008 -3.70311 0.453925 -0.746693 -0.486212 127 130 138
0.623734 1.11598 -3.68916 0.36675 -0.750293 -0.55005 111 115 122
0.646388 1.12122 -3.68808 0.544239 -0.679677 -0.491776 120 123 130
0.672045 1.13566 -3.67335 0.563221 -0.701937 -0.435967 29 30 33
0.714796 1.15951 -3.63386 0.554184 -0.764842 -0.328477 7 8 9
0.727966 1.16089 -3.61871 0.559618 -0.774674 -0.294463 5 7 7
0.741869 1.1598 -3.60718 0.678659 -0.655118 -0.332028 5 7 6
0.768013 1.17116 -3.59846 0.585229 -0.595972 -0.54984 10 12 15
0.772598 1.1779 -3.56591 0.336564 -0.937112 -0.0924421 5 6 7
0.797865 1.18578 -3.58022 0.59557 -0.591656 -0.54336 54 57 65
0.783819 1.16942 -3.58478 0.657589 -0.391182 -0.643858 7 8 11
0.811461 1.18603 -3.56503 0.571797 -0.622632 -0.534208 34 38 45
0.825155 1.18564 -3.55113 0.569971 -0.611661 -0.548638 22 25 30
0.839783 1.1993 -3.55058 0.570517 -0.622981 -0.535168 115 120 132
0.85386 1.19947 -3.53543 0.559452 -0.591899 -0.580232 102 106 116
0.872802 1.20187 -3.51874 0.593539 -0.503303 -0.628011 102 106 116
0.899102 1.21398 -3.50554 0.548105 -0.531709 -0.645652 135 141 152
0.912258 1.21494 -3.4924 0.618494 -0.483394 -0.619512 124 129 139
0.93072 1.22738 -3.49231 0.452466 -0.633737 -0.627417 127 132 141
0.95118 1.22387 -3.47949 0.39307 -0.798892 -0.455267 136 142 151
0.963317 1.22639 -3.46751 0.404474 -0.84172 -0.357644 138 143 154
0.998562 1.25027 -3.45255 0.682013 -0.006295 -0.731313 122 124 125
1.00381 1.23978 -3.43787 0.603935 -0.695522 -0.389245 135 140 148
1.01531 1.2564 -3.43894 0.735628 -0.045705 -0.675842 121 123 121
1.03194 1.24972 -3.42283 0.659018 -0.035645 -0.751282 129 132 134
1.04276 1.26225 -3.40791 0.709311 0.0426824 -0.703602 126 128 127
1.06857 1.28072 -3.36894 0.652896 -0.441666 -0.615352 124 126 125
1.08319 1.28171 -3.35771 0.457722 -0.268912 -0.847453 123 126 128
1.09644 1.29174 -3.36138 0.541764 -0.459727 -0.703664 121 124 126
1.11459 1.28971 -3.33453 0.319325 -0.884185 -0.340953 121 125 127
1.13049 1.30073 -3.33588 0.574173 -0.661573 -0.482334 123 127 133
1.14213 1.30138 -3.32121 0.610675 -0.580548 -0.538555 123 126 132
1.15643 1.31368 -3.32242 0.488076 -0.813774 -0.315521 136 142 152
1.15337 1.30321 -3.30652 0.694027 -0.570959 -0.438557 122 126 130
1.15864 1.31136 -3.30621 0.271794 -0.950725 -0.149165 125 129 136
1.17547 1.31809 -3.31722 0.534442 -0.780617 -0.32405 140 145 155
1.17797 1.31855 -3.29053 0.478193 -0.836924 -0.266252 131 134 141
1.17801 1.323 -3.30159 0.23021 -0.891844 -0.389381 137 141 151
1.26228 1.39155 -3.15666 0.154426 -0.836336 -0.526018 121 123 116
1.30063 1.38747 -3.14243 0.750105 -0.284757 -0.596872 120 121 115
1.30999 1.40419 -3.14239 0.734492 -0.436465 -0.519634 118 119 119
1.32142 1.40895 -3.12805 0.672547 -0.419459 -0.6097 121 123 121
1.44132 1.54527 -2.83688 0.348036 -0.631554 -0.692828 117 120 87
1.48849 1.5618 -2.83027 -0.169325 -0.790878 -0.588082 117 120 85
1.50387 1.5478 -2.83474 -0.0634427 -0.776248 -0.627227 118 121 88
1.52706 1.55645 -2.83543 0.0199138 -0.924729 -0.380106 118 122 88
1.54687 1.54773 -2.8317 -0.0065329 -0.9244 -0.381368 120 123 92
1.57492 1.56252 -2.82152 -0.0276149 -0.928563 -0.370146 120 123 91
1.59559 1.54765 -2.81984 -0.377971 -0.756661 -0.533481 121 125 96
1.61279 1.54791 -2.84508 -0.289675 -0.533458 -0.794677 120 124 94
1.6475 1.53643 -2.83581 0.00472009 -0.564257 -0.825586 121 125 98
1.66968 1.56568 -2.81996 0.334064 -0.782414 -0.525576 121 124 92
1.68199 1.54831 -2.82221 0.124132 -0.763949 -0.633224 122 126 96
1.75269 1.54708 -2.82505 0.0816701 -0.711369 -0.698057 124 128 101
1.78957 1.57182 -2.80202 0.100891 -0.209166 -0.972662 126 130 106
1.80008 1.55994 -2.82111 0.11316 -0.120134 -0.986287 123 127 101
1.83897 1.5635 -2.81387 0.332899 -0.671799 -0.661713 125 129 105
1.85029 1.55347 -2.81747 0.300008 -0.680128 -0.668896 123 127 101
1.8617 1.55747 -2.83445 0.151195 -0.870213 -0.468902 123 127 101
1.89191 1.54429 -2.84944 0.313387 -0.735936 -0.600156 121 126 100
1.88227 1.55423 -2.83891 0.398358 -0.613166 -0.682157 123 127 104
1.86721 1.52755 -2.85895 0.305119 -0.607243 -0.733593 122 126 100
1.89871 1.5358 -2.85063 0.410702 -0.636204 -0.653121 121 126 100
1.9081 1.54181 -2.86323 0.286909 -0.754333 -0.590478 121 125 99
1.90943 1.53032 -2.84505 0.413733 -0.636509 -0.650908 121 126 101
2.12191 1.54035 -2.86738 -0.169117 -0.797379 -0.579298 117 121 96
-0.117981 1.14425 -3.68476 -0.545513 0.0401003 -0.837143 122 122 88
-0.000881776 1.16737 -3.64749 0.0270531 -0.996556 -0.0783908 115 111 110
0.332577 1.14123 -3.70228 0.0721806 -0.992007 -0.103498 101 58 50
0.359077 1.14139 -3.67937 -0.0430051 -0.996007 -0.0782318 80 71 74
0.38407 1.14401 -3.68639 -0.0012503 -0.996158 -0.0875714 53 53 59
0.406773 1.14402 -3.70056 -0.0139155 -0.984828 -0.172972 44 44 50
0.428949 1.13975 -3.68457 -0.146848 -0.964206 -0.220776 31 33 36
0.476993 1.10604 -3.74545 -0.584127 -0.67429 -0.451806 31 34 36
0.553527 1.12144 -3.7377 0.27628 -0.822438 -0.497257 30 33 36
0.571585 1.1202 -3.72527 0.197201 -0.861482 -0.467933 32 35 38
0.592241 1.12796 -3.73108 0.338733 -0.7712 -0.53899 85 88 96
0.608616 1.1263 -3.7209 0.282934 -0.804417 -0.522362 119 123 131
0.651165 1.13295 -3.70317 0.534046 -0.640395 -0.551987 125 128 135
0.660443 1.13508 -3.68864 0.553471 -0.6815 -0.478778 106 108 114
0.686023 1.14973 -3.67969 0.504088 -0.732072 -0.45822 35 37 41
0.705427 1.16393 -3.64726 0.566194 -0.753807 -0.333465 11 13 15
0.728386 1.17047 -3.64149 0.61175 -0.555252 -0.563433 37 40 46
0.742092 1.17099 -3.627 0.600722 -0.59039 -0.539048 24 26 32
0.755981 1.1717 -3.61186 0.59171 -0.585527 -0.554109 15 17 21
0.771626 1.18503 -3.60957 0.561831 -0.722227 -0.403403 95 99 110
0.784264 1.18534 -3.59459 0.578158 -0.678894 -0.452589 70 73 82
0.785178 1.18826 -3.59712 0.66958 -0.368703 -0.644764 99 102 114
0.813754 1.19864 -3.58199 0.508483 -0.767225 -0.390912 134 140 154
0.826258 1.19909 -3.56563 0.542249 -0.713561 -0.443618 125 131 144
0.862626 1.2113 -3.54398 0.514537 -0.748241 -0.418792 138 144 157
0.87824 1.21328 -3.53173 0.424402 -0.804878 -0.414796 139 144 156
0.884254 1.21728 -3.51877 0.620416 -0.409048 -0.669151 138 144 156
0.889124 1.22304 -3.54288 0.570512 -0.66397 -0.483384 130 133 140
0.890872 1.22564 -3.53734 0.587054 -0.653893 -0.477275 130 134 141
0.90198 1.22686 -3.5278 0.669677 -0.57119 -0.47463 132 135 143
0.930345 1.24178 -3.5067 0.602645 -0.476493 -0.640135 121 124 129
0.949876 1.23864 -3.49387 0.543448 -0.564231 -0.621536 127 130 136
0.959968 1.24695 -3.47549 0.652215 -0.50546 -0.564912 128 131 136
0.988997 1.26375 -3.46465 0.737216 -0.202256 -0.644675 111 110 106
0.983831 1.2446 -3.46469 0.68639 -0.00225079 -0.72723 127 130 133
1.00291 1.26995 -3.45195 0.727759 -0.148095 -0.669653 111 110 105
1.02985 1.27341 -3.42058 0.707834 0.0348191 -0.70552 122 123 118
1.06871 1.29043 -3.38692 0.557864 -0.459823 -0.690906 121 124 122
1.06093 1.28702 -3.39909 0.619994 -0.199718 -0.758762 122 125 121
1.08261 1.29222 -3.37461 0.54372 -0.556309 -0.628402 121 124 125
1.09435 1.30784 -3.37148 0.278009 -0.900506 -0.334366 127 132 139
1.09481 1.29908 -3.35716 0.547422 -0.636853 -0.542908 121 124 128
1.09667 1.31014 -3.37228 0.251227 -0.941516 -0.224572 131 135 143
1.11144 1.30833 -3.36117 0.295297 -0.911372 -0.286706 130 136 145
1.1115 1.30832 -3.36129 0.294096 -0.911802 -0.286575 130 136 145
1.12824 1.30966 -3.35093 0.267046 -0.917087 -0.296038 134 139 149
1.14394 1.31218 -3.33839 0.278777 -0.929417 -0.241801 137 143 154
1.15822 1.32221 -3.34282 0.545521 -0.656888 -0.520486 139 143 150
1.1604 1.31439 -3.32748 0.442499 -0.860697 -0.251784 139 145 156
1.17362 1.32583 -3.33193 0.629888 -0.634576 -0.447833 136 140 145
1.20304 1.33965 -3.28307 0.428117 -0.827135 -0.364092 137 139 145
1.29703 1.40069 -3.15562 0.684251 -0.400443 -0.609464 116 118 117
1.29312 1.40478 -3.15338 0.651622 -0.664987 -0.36494 115 117 116
1.31777 1.42277 -3.14222 0.672141 -0.539204 -0.507431 135 136 136
1.33966 1.43057 -3.11993 0.519233 -0.752421 -0.405289 124 126 119
1.4731 1.58331 -2.8148 -0.367082 -0.829126 -0.421664 118 121 86
1.49179 1.58293 -2.83691 -0.0109757 -0.853638 -0.520751 118 121 84
1.50935 1.57233 -2.83072 0.119437 -0.816922 -0.564246 118 121 85
1.52102 1.57991 -2.83834 -0.101626 -0.930874 -0.350921 117 120 84
1.57336 1.58076 -2.84183 -0.0882998 -0.860724 -0.501356 117 120 86
1.59574 1.56894 -2.83392 -0.421145 -0.518153 -0.744415 117 121 89
1.61375 1.57052 -2.85628 -0.241249 -0.630213 -0.737991 117 120 87
1.63095 1.55264 -2.85973 -0.284046 -0.614247 -0.736219 119 122 91
1.65992 1.57365 -2.83912 0.137702 -0.964797 -0.224065 121 123 89
1.66881 1.57139 -2.85829 0.233242 -0.834664 -0.498933 118 121 88
1.66974 1.57388 -2.8587 0.255789 -0.841702 -0.475509 118 121 88
1.68438 1.57062 -2.85399 0.287345 -0.8676 -0.405837 118 121 88
1.71567 1.57258 -2.82459 -0.074495 -0.683504 -0.726136 120 124 94
1.73337 1.57704 -2.83906 0.209297 -0.857392 -0.470185 120 123 91
1.77108 1.58251 -2.82927 0.0286692 -0.976118 -0.215342 121 125 95
1.80206 1.59323 -2.80689 0.279521 -0.321215 -0.904814 123 126 99
1.8116 1.58152 -2.82549 0.141162 -0.196118 -0.970366 122 125 98
1.84067 1.55782 -2.84908 0.0019922 -0.832956 -0.553336 123 127 99
1.86341 1.56875 -2.85071 0.217622 -0.812203 -0.541265 122 127 98
1.87602 1.56215 -2.84744 0.22699 -0.788618 -0.571451 122 127 100
1.88443 1.55345 -2.8482 0.26865 -0.727054 -0.631838 123 128 102
1.89359 1.5581 -2.86168 0.343409 -0.761703 -0.549435 121 125 98
1.89786 1.56005 -2.88123 0.151868 -0.857266 -0.491967 122 126 98
1.90019 1.55049 -2.86255 0.254075 -0.751324 -0.609063 121 125 98
1.95508 1.56333 -2.85562 -0.370538 -0.858707 -0.354011 121 125 101
1.95581 1.56292 -2.85686 -0.369377 -0.85588 -0.361981 121 125 101
1.97246 1.55665 -2.87833 -0.506999 -0.817431 -0.273419 120 124 100
1.97281 1.55632 -2.87966 -0.503149 -0.821752 -0.267515 120 124 100
2.04937 1.55587 -2.85515 -0.427791 -0.638067 -0.640207 120 124 102
2.07914 1.56393 -2.8535 -0.215946 -0.88283 -0.417108 120 124 99
2.06974 1.54419 -2.87522 -0.30293 -0.16457 -0.938696 124 128 106
2.09658 1.56695 -2.86542 -0.043346 -0.901848 -0.429874 122 125 101
-0.13505 1.16626 -3.67318 -0.605033 -0.111441 -0.788363 124 125 87
-0.18815 1.37374 -3.28558 0.756863 -0.581702 -0.297961 125 124 94
-0.17479 1.37903 -3.2668 0.494365 -0.688471 -0.53067 123 123 91
-0.16963 1.39045 -3.24328 0.587611 -0.529966 -0.611432 122 122 91
0.000389543 1.17585 -3.66852 -0.0119934 -0.996233 -0.085882 123 120 129
0.0285239 1.1729 -3.65466 0.063598 -0.994236 -0.0863096 113 100 97
0.0702727 1.16659 -3.6951 -0.0196502 -0.996453 -0.0818231 107 77 58
0.307553 1.14073 -3.71732 0.0905054 -0.993514 -0.0688422 98 75 71
0.333237 1.14089 -3.73803 -0.0189392 -0.996997 -0.0750924 103 58 47
0.357374 1.14606 -3.71339 0.0516932 -0.99616 -0.0706613 103 76 77
0.383837 1.14568 -3.71561 -0.0439287 -0.995984 -0.0780092 116 114 127
0.406612 1.14565 -3.72981 -0.0505922 -0.995827 -0.0759568 105 110 127
0.429245 1.14262 -3.71544 -0.064322 -0.980912 -0.183508 37 38 45
0.451751 1.14303 -3.72647 0.0197441 -0.98998 -0.139818 36 39 45
0.479088 1.1186 -3.7608 -0.409649 -0.84077 -0.353968 32 35 39
0.475593 1.14172 -3.71246 -0.0916149 -0.980375 -0.174559 32 35 37
0.503425 1.12743 -3.76044 -0.410236 -0.851875 -0.3256 32 35 39
0.539427 1.12589 -3.743 -0.0433893 -0.811637 -0.582548 29 32 35
0.571671 1.12988 -3.74512 0.219977 -0.850233 -0.478241 38 42 47
0.589809 1.12839 -3.73274 0.183008 -0.859976 -0.476392 76 79 86
0.608498 1.13794 -3.73559 0.333598 -0.770367 -0.543367 129 134 143
0.619962 1.14001 -3.72081 0.452885 -0.674327 -0.583248 126 131 140
0.631887 1.13588 -3.71782 0.474025 -0.630083 -0.615058 124 128 137
0.646013 1.15171 -3.71076 -0.211366 -0.877503 -0.430479 122 125 131
0.659816 1.14743 -3.7037 0.517999 -0.653719 -0.551659 119 122 127
0.664539 1.14581 -3.70271 0.578505 -0.732471 -0.358913 118 121 127
0.67314 1.14849 -3.69155 0.491843 -0.677016 -0.547485 85 88 93
0.688419 1.16019 -3.69505 0.444257 -0.730031 -0.519318 100 104 109
0.692125 1.16376 -3.66291 0.600148 -0.700056 -0.386967 26 28 32
0.70126 1.16159 -3.68332 0.486435 -0.777824 -0.397958 83 86 93
0.708976 1.17522 -3.6633 0.730037 -0.475531 -0.490832 96 100 109
0.74244 1.18582 -3.63949 0.680878 -0.313243 -0.66203 127 131 145
0.759565 1.1849 -3.62432 0.550854 -0.716373 -0.428218 115 119 132
0.780187 1.19996 -3.61474 0.673883 -0.370569 -0.639187 137 142 157
0.775183 1.19612 -3.62613 0.571816 -0.747546 -0.337938 137 143 157
0.789937 1.19987 -3.61172 0.591246 -0.706502 -0.388951 137 142 157
0.801825 1.19917 -3.59697 0.504051 -0.77438 -0.382449 137 142 157
0.818328 1.21014 -3.59691 0.601317 -0.730249 -0.324273 136 141 151
0.830784 1.2091 -3.58515 0.389233 -0.890561 -0.23537 137 143 155
0.840738 1.21091 -3.56864 0.564506 -0.72576 -0.393198 138 144 157
0.861977 1.22031 -3.56353 0.558457 -0.724518 -0.403979 131 134 141
0.877278 1.22283 -3.54953 0.469535 -0.75802 -0.452706 129 133 140
0.917048 1.24014 -3.52024 0.715759 -0.40627 -0.568009 122 124 126
0.943589 1.25683 -3.5033 0.626241 -0.368578 -0.687003 106 107 106
0.941202 1.25768 -3.50599 0.657747 -0.360229 -0.661517 105 104 104
0.957454 1.25632 -3.48978 0.720165 -0.308757 -0.621314 116 116 115
0.95831 1.25954 -3.49081 0.709972 -0.273716 -0.648859 114 113 109
0.972754 1.25891 -3.47741 0.707959 -0.230593 -0.667548 114 113 109
0.973676 1.26289 -3.47853 0.679594 -0.224084 -0.698526 111 109 103
1.00599 1.291 -3.45039 0.756979 -0.0646524 -0.650233 111 109 102
1.0246 1.29537 -3.43895 0.643794 -0.170506 -0.74596 116 116 109
1.07067 1.30296 -3.39904 0.478857 -0.517061 -0.709467 122 125 127
1.08018 1.3087 -3.38421 0.252192 -0.912265 -0.322756 125 129 134
1.07774 1.30677 -3.38685 0.168495 -0.862468 -0.47724 124 127 132
1.09725 1.3162 -3.39238 0.230305 -0.908384 -0.348997 139 143 151
1.1143 1.31684 -3.38058 0.505457 -0.727535 -0.463902 141 145 154
1.1396 1.32574 -3.35625 0.446728 -0.615113 -0.649669 134 139 144
1.15593 1.33651 -3.35632 0.581366 -0.481339 -0.655992 112 114 109
1.16862 1.33587 -3.34267 0.688639 -0.42806 -0.585271 120 122 118
1.20716 1.35951 -3.31315 0.650705 -0.0362082 -0.758467 86 87 78
1.29899 1.42424 -3.15728 0.436052 -0.866352 -0.243501 138 140 142
1.59335 1.58577 -2.85709 -0.33077 -0.784428 -0.524656 115 118 83
1.63339 1.57458 -2.8663 -0.316252 -0.43643 -0.842326 116 119 86
1.68741 1.5813 -2.86938 0.242626 -0.905293 -0.34868 117 120 88
1.71545 1.58867 -2.84078 0.0795501 -0.956436 -0.280894 120 123 91
1.71546 1.58998 -2.83801 0.0608912 -0.966518 -0.249268 120 123 90
1.69949 1.57584 -2.8691 0.304571 -0.881068 -0.361877 117 120 87
1.76213 1.58231 -2.85634 0.063989 -0.889991 -0.451466 119 123 92
1.74397 1.58602 -2.86403 0.0602822 -0.970363 -0.234011 119 122 91
1.77952 1.60099 -2.83064 0.0498969 -0.928788 -0.367238 119 123 91
1.78242 1.58737 -2.8679 -0.00385039 -0.926879 -0.375341 119 122 92
1.8335 1.59144 -2.84665 0.039394 -0.770547 -0.636165 120 124 95
1.81691 1.59979 -2.8509 -0.0819248 -0.696648 -0.71272 117 120 89
1.84251 1.57119 -2.86463 -0.0131955 -0.825945 -0.563597 122 126 97
1.8506 1.59481 -2.86075 -0.081719 -0.652179 -0.753647 123 127 97
1.86502 1.58227 -2.86376 -0.1204 -0.731062 -0.671605 121 125 96
1.85513 1.56967 -2.9072 -0.150978 -0.84923 -0.505978 122 126 99
1.87641 1.57403 -2.86293 0.227001 -0.790071 -0.569437 121 125 98
1.87974 1.57699 -2.85778 0.360029 -0.771698 -0.524273 119 123 95
1.88802 1.56299 -2.9118 -0.161163 -0.785137 -0.597985 120 124 95
1.92049 1.58818 -2.86273 -0.335337 -0.716423 -0.611789 117 121 90
1.92814 1.57754 -2.86835 -0.476504 -0.809263 -0.343565 117 122 93
1.95444 1.57441 -2.88311 -0.353691 -0.840381 -0.410685 119 123 96
1.96949 1.56867 -2.90566 -0.368409 -0.840356 -0.39759 118 123 95
2.0458 1.58766 -2.86038 -0.0103692 -0.981431 -0.191537 115 120 92
2.06753 1.58717 -2.86988 0.0275223 -0.968184 -0.24872 116 120 90
2.05845 1.57278 -2.86306 -0.216181 -0.861767 -0.458936 119 123 98
2.08092 1.57453 -2.87033 -0.169284 -0.858317 -0.484392 118 122 95
2.09435 1.5746 -2.88818 -0.230492 -0.917063 -0.325375 118 122 95
2.11162 1.56824 -2.88081 -0.227817 -0.864434 -0.448166 118 122 97
2.11096 1.58061 -2.88308 0.0964216 -0.879568 -0.465901 118 121 95
2.16409 1.55387 -2.92494 0.141593 -0.664527 -0.733727 117 121 96
2.22258 1.59996 -2.83197 0.371395 -0.747324 -0.550973 114 118 88
-0.162469 1.20343 -3.65882 -0.639048 -0.325737 -0.696788 124 126 91
-0.16212 1.20162 -3.66571 -0.563666 -0.356519 -0.7451 124 126 91
0.222548 1.13925 -3.77765 0.101593 -0.985984 -0.13234 90 39 35
0.244735 1.13851 -3.76635 0.0320844 -0.998692 -0.0398167 90 33 32
0.310565 1.14084 -3.77564 -0.0200427 -0.997331 -0.0702151 104 81 69
0.33665 1.13915 -3.75985 -0.036067 -0.996592 -0.0741904 103 60 48
0.362144 1.13912 -3.7473 0.0760018 -0.985162 -0.15388 101 75 76
0.376831 1.14317 -3.75342 0.028464 -0.99585 -0.0864403 115 114 132
0.429411 1.14612 -3.74405 -0.0012114 -0.997589 -0.0693816 104 108 124
0.452545 1.14538 -3.75976 0.00147185 -0.996712 -0.0810108 105 110 125
0.500049 1.14553 -3.75341 -0.0591389 -0.991974 -0.111756 37 40 48
0.572659 1.14018 -3.76285 0.155278 -0.88753 -0.433796 89 93 101
0.589915 1.13864 -3.75149 0.204554 -0.853905 -0.478544 123 128 137
0.592201 1.13918 -3.74618 0.289396 -0.790408 -0.539912 123 128 137
0.603474 1.15014 -3.75493 0.321697 -0.800572 -0.505566 128 134 144
0.651484 1.1581 -3.73059 0.523862 -0.650318 -0.55014 115 118 124
0.663011 1.15762 -3.71922 0.46591 -0.712268 -0.524978 113 115 119
0.674165 1.15946 -3.70727 0.446362 -0.726678 -0.522207 113 116 120
0.698292 1.1749 -3.69825 0.610986 -0.674303 -0.414744 136 141 152
0.688677 1.17154 -3.71106 0.445958 -0.735203 -0.510488 134 137 144
0.713028 1.17902 -3.68312 0.643058 -0.668675 -0.373296 137 142 155
0.731473 1.18163 -3.67093 0.364672 -0.887027 -0.283192 137 142 156
0.736191 1.19208 -3.66728 0.557898 -0.761223 -0.330591 138 142 155
0.763938 1.1958 -3.64005 0.608766 -0.736282 -0.295453 137 143 157
0.779486 1.20688 -3.64162 0.529887 -0.744471 -0.40618 130 133 141
0.793243 1.21181 -3.62629 0.635109 -0.598853 -0.487864 127 129 136
0.806635 1.21158 -3.61006 0.595063 -0.67315 -0.439056 133 136 145
0.845329 1.22154 -3.5847 0.638294 -0.496605 -0.588188 127 129 132
0.860729 1.23472 -3.58664 0.662274 -0.380664 -0.645359 107 92 85
0.87706 1.23105 -3.57042 0.605776 0.0973565 -0.789656 117 108 105
0.901162 1.24648 -3.54764 0.687906 -0.24217 -0.684207 99 87 79
0.888518 1.2398 -3.56138 0.708386 -0.215341 -0.672174 104 89 83
0.913477 1.25312 -3.53372 0.69251 -0.253158 -0.675531 100 90 81
0.92776 1.25612 -3.51946 0.696624 -0.343256 -0.629992 114 112 107
0.935521 1.27399 -3.51898 0.717468 -0.223107 -0.659896 96 87 76
0.951616 1.27494 -3.50211 0.674356 -0.259678 -0.69124 103 94 85
0.979738 1.28209 -3.47845 0.690267 -0.142457 -0.709392 103 95 83
1.04153 1.30442 -3.42856 0.617253 -0.487111 -0.617837 119 120 116
1.05141 1.32343 -3.42236 0.228368 -0.651258 -0.723679 121 124 125
1.07084 1.31859 -3.41085 0.238806 -0.783749 -0.573332 134 137 142
1.07652 1.3181 -3.4007 0.0853312 -0.984319 -0.154383 138 141 148
1.09721 1.32367 -3.41165 0.165061 -0.798356 -0.579122 126 129 128
1.10776 1.33245 -3.38905 0.447148 -0.282896 -0.848545 123 126 125
1.1418 1.33872 -3.36963 0.585891 -0.275969 -0.761954 108 110 103
1.1813 1.35047 -3.34278 0.706926 -0.00575355 -0.707264 56 56 48
1.45989 1.60931 -2.87041 -0.086074 -0.874101 -0.478057 117 119 82
1.49657 1.61091 -2.87463 0.155675 -0.960392 -0.231109 117 120 85
1.51928 1.60128 -2.87756 -0.090856 -0.857667 -0.506115 116 119 85
1.52281 1.59645 -2.89876 -0.158962 -0.97558 -0.151574 115 118 85
1.60928 1.59574 -2.90335 0.0178735 -0.905714 -0.423512 118 120 86
1.65424 1.58664 -2.9193 -0.399835 -0.859873 -0.317413 117 120 87
1.79793 1.61234 -2.86829 0.0739148 -0.925542 -0.37136 123 126 95
1.86585 1.59849 -2.90237 -0.055168 -0.552527 -0.831667 121 124 94
1.90202 1.58469 -2.91797 0.210521 -0.811428 -0.54522 119 123 93
1.94464 1.59834 -2.88132 -0.326624 -0.809787 -0.487403 116 119 87
2.05063 1.5915 -2.8769 -0.220504 -0.948187 -0.228736 115 119 89
2.0664 1.59225 -2.89566 -0.0557259 -0.943972 -0.325288 117 121 91
2.09651 1.58251 -2.90691 -0.229916 -0.898409 -0.374166 117 120 92
2.11953 1.58469 -2.88994 0.147092 -0.943083 -0.298259 114 117 88
2.11703 1.58882 -2.91235 -0.0926608 -0.832498 -0.546225 116 119 91
2.12388 1.58846 -2.89127 0.206652 -0.917666 -0.339389 113 117 87
2.22253 1.60628 -2.84968 0.153326 -0.934884 -0.320129 112 118 86
2.24895 1.6126 -2.85994 0.0546093 -0.975581 -0.212741 113 115 85
2.23543 1.61549 -2.86525 0.038285 -0.980474 -0.192887 112 116 85
-0.609428 1.35042 -3.41002 -0.167264 -0.61303 -0.772151 124 126 91
-0.00391021 1.17987 -3.72835 -0.0220906 -0.991069 -0.131505 118 125 141
0.220667 1.13845 -3.81121 0.0159648 -0.999224 -0.0360124 89 53 43
0.247988 1.13913 -3.79571 0.0562895 -0.997936 -0.0308932 94 51 43
0.336995 1.1405 -3.79264 -0.0316023 -0.997154 -0.0684464 104 93 93
0.362445 1.14052 -3.77997 0.105503 -0.988762 -0.105915 76 65 78
0.419104 1.1468 -3.77401 0.0401869 -0.997238 -0.0624563 86 87 95
0.440587 1.14274 -3.77547 0.265442 -0.945993 -0.18611 115 120 139
0.452939 1.13892 -3.80982 0.259283 -0.916005 -0.306116 114 121 141
0.470425 1.14002 -3.78234 -0.0904551 -0.980412 -0.17496 106 110 124
0.489221 1.14747 -3.76351 -0.0847109 -0.983901 -0.157362 68 71 81
0.552916 1.14895 -3.78107 -0.0702182 -0.976804 -0.202293 73 77 86
0.570548 1.15153 -3.77943 0.174234 -0.869603 -0.461988 129 134 146
0.59005 1.14876 -3.76986 0.19735 -0.861893 -0.467112 134 141 152
0.651908 1.16894 -3.74564 0.399922 -0.765858 -0.503511 130 133 141
0.660967 1.1708 -3.73478 0.402041 -0.740039 -0.539172 124 127 132
0.676005 1.17125 -3.72204 0.486792 -0.692364 -0.532603 126 130 134
0.688104 1.18279 -3.72617 0.38097 -0.745748 -0.546554 130 131 136
0.708689 1.18791 -3.7039 0.390109 -0.793505 -0.467081 135 138 147
0.705578 1.18234 -3.7149 0.296321 -0.846553 -0.442201 135 137 145
0.723764 1.19098 -3.69164 0.367378 -0.861837 -0.349671 134 137 146
0.736051 1.19595 -3.67988 0.360171 -0.84439 -0.396588 132 134 142
0.764597 1.20375 -3.65707 0.579132 -0.73873 -0.344795 127 130 136
0.779865 1.2178 -3.65981 0.71044 -0.402576 -0.577242 101 96 92
0.793159 1.2234 -3.64503 0.675977 -0.343045 -0.652208 109 103 97
0.812281 1.22537 -3.63165 0.676498 -0.290399 -0.676771 104 96 87
0.830175 1.23131 -3.61304 0.634453 -0.471468 -0.612526 98 86 76
0.816895 1.22929 -3.62638 0.628181 -0.494533 -0.600687 96 84 73
0.84661 1.23337 -3.6 0.65383 -0.386713 -0.650353 107 96 86
0.866165 1.25349 -3.58684 0.669918 -0.0691587 -0.739207 80 35 27
0.892766 1.2602 -3.55999 0.671321 -0.0588762 -0.738825 82 44 33
0.90583 1.26655 -3.54636 0.654401 -0.080751 -0.751824 90 64 44
0.920544 1.27167 -3.53386 0.759188 -0.195271 -0.620888 103 88 70
0.939847 1.29415 -3.51799 0.687823 -0.0271122 -0.725372 84 71 58
0.968987 1.29505 -3.4908 0.639151 -0.0885931 -0.763961 86 72 57
0.983682 1.30248 -3.4783 0.740784 -0.0309601 -0.671029 110 103 91
1.01609 1.32935 -3.43621 0.25227 -0.421291 -0.871133 117 117 110
1.03439 1.32854 -3.4314 0.293482 -0.443553 -0.846835 112 114 112
1.07473 1.33276 -3.41505 0.449199 -0.310556 -0.837721 123 126 126
1.0892 1.34609 -3.4159 0.559501 -0.0814528 -0.824818 115 118 108
1.1052 1.34664 -3.40169 0.604999 -0.0586506 -0.794063 115 116 106
1.21268 1.39651 -3.30937 0.702565 -0.0100016 -0.711549 29 29 20
1.46343 1.62633 -2.86864 0.0946101 -0.982309 -0.161609 122 124 87
1.52813 1.61019 -2.91405 -0.246197 -0.964139 -0.0991082 119 122 89
1.55509 1.61981 -2.91305 -0.060934 -0.957883 -0.28062 122 124 92
1.5746 1.61332 -2.90715 0.0454427 -0.930707 -0.362932 120 123 91
1.59158 1.60184 -2.90968 0.0084753 -0.918187 -0.396055 119 121 89
1.60999 1.60637 -2.92334 -0.018395 -0.948642 -0.315816 121 123 92
1.63337 1.60437 -2.90667 -0.458953 -0.811603 -0.361472 118 120 88
1.65788 1.60107 -2.92245 -0.483633 -0.692679 -0.535065 117 121 89
1.67645 1.59671 -2.94754 -0.544418 -0.526507 -0.652992 120 124 95
1.71999 1.59666 -2.93306 -0.153344 -0.952958 -0.261452 118 122 91
1.7366 1.59303 -2.92699 0.0811568 -0.973336 -0.214548 117 121 88
1.73809 1.59354 -2.95584 -0.0187936 -0.992236 -0.122943 120 124 95
1.7471 1.61063 -2.92563 -0.0359161 -0.989063 -0.143057 121 124 93
1.77593 1.60415 -2.93863 -0.0319616 -0.993423 -0.109953 120 124 94
2.07546 1.59112 -2.91719 0.138957 -0.953175 -0.268605 115 118 86
2.0995 1.596 -2.91974 0.0762124 -0.956976 -0.279978 114 117 85
2.09592 1.59138 -2.93009 -0.31778 -0.869898 -0.377217 116 119 89
2.12213 1.59374 -2.93746 -0.0239396 -0.873221 -0.486737 116 119 89
2.1343 1.59439 -2.95416 0.0239821 -0.904865 -0.425022 116 119 90
2.15996 1.59631 -2.93333 0.0258449 -0.930943 -0.364248 119 123 95
2.1965 1.60316 -2.89927 0.434075 -0.805884 -0.402654 112 116 85
2.21605 1.6162 -2.89998 0.380691 -0.855526 -0.350927 109 114 82
2.19721 1.61007 -2.91799 0.557566 -0.599541 -0.574169 116 120 87
2.24879 1.6167 -2.87983 0.112499 -0.955798 -0.271651 111 115 84
2.23679 1.62215 -2.88085 0.0582178 -0.975844 -0.21057 111 115 84
2.25919 1.6083 -2.88336 -0.16225 -0.932027 -0.324039 113 117 89
-0.00552105 1.18568 -3.75516 -0.0745407 -0.946252 -0.314723 118 124 139
0.130537 1.14442 -3.82765 -0.0550002 -0.996498 -0.0629756 105 85 68
0.254386 1.13748 -3.82581 0.11331 -0.991888 -0.0576099 115 107 98
0.278297 1.14007 -3.81132 0.11411 -0.991521 -0.062168 116 108 101
0.30298 1.14322 -3.83164 0.0575471 -0.996909 -0.0534845 108 113 107
0.321247 1.14407 -3.82408 0.0958381 -0.991063 -0.0927899 119 124 128
0.362839 1.14139 -3.81361 0.0844656 -0.99478 -0.0572616 72 76 104
0.3893 1.14263 -3.83229 0.0512959 -0.997213 -0.054168 70 64 84
0.414433 1.14288 -3.81686 0.0439111 -0.998226 -0.0402081 98 83 58
0.470935 1.14561 -3.8147 0.328563 -0.837157 -0.437281 131 137 155
0.490436 1.14841 -3.80367 -0.221941 -0.848819 -0.479843 132 138 152
0.504643 1.15914 -3.79709 -0.271103 -0.818966 -0.505764 133 139 153
0.50565 1.15866 -3.79617 -0.21178 -0.847727 -0.48632 133 138 153
0.521746 1.15112 -3.78922 -0.162582 -0.842911 -0.512901 108 112 123
0.537693 1.15403 -3.79795 -0.0370455 -0.911595 -0.409417 121 125 138
0.570568 1.15937 -3.79893 -0.0278316 -0.916155 -0.399857 144 149 162
0.586021 1.16182 -3.78469 0.380365 -0.816322 -0.434673 136 142 155
0.60239 1.16112 -3.77234 0.324499 -0.841465 -0.432015 132 138 151
0.615929 1.16761 -3.77888 0.490339 -0.714423 -0.499168 136 139 150
0.629797 1.1688 -3.76484 0.520565 -0.767335 -0.374444 132 137 149
0.660985 1.18504 -3.75377 0.652574 -0.562348 -0.507851 120 119 121
0.681587 1.19431 -3.72511 0.522547 -0.754621 -0.396852 120 120 124
0.716088 1.20192 -3.71204 0.61339 -0.553687 -0.563191 110 108 105
0.702196 1.20096 -3.72648 0.533501 -0.562515 -0.631628 109 106 101
0.733751 1.20595 -3.69947 0.659739 -0.418276 -0.624331 109 106 102
0.748817 1.20833 -3.68708 0.678133 -0.244978 -0.692908 108 105 102
0.765195 1.2148 -3.67301 0.686319 -0.391937 -0.61266 102 99 93
0.786282 1.23666 -3.65819 0.685058 -0.266243 -0.678094 98 88 71
0.798296 1.24478 -3.64445 0.696714 -0.199297 -0.689108 89 73 52
0.835144 1.25034 -3.61331 0.624147 -0.244046 -0.742215 84 58 38
0.850611 1.2528 -3.6003 0.683167 -0.13929 -0.716856 81 48 33
0.877931 1.27966 -3.57776 0.674594 -0.0630098 -0.735495 85 36 27
0.908449 1.28822 -3.54633 0.690783 -0.0851995 -0.718025 105 88 66
0.925204 1.29128 -3.53366 0.719831 -0.0956272 -0.687531 104 92 74
0.944568 1.31589 -3.51447 0.624946 0.0218572 -0.780362 80 68 51
0.972186 1.31779 -3.48852 0.701148 0.00112513 -0.713015 113 106 94
1.01041 1.33999 -3.45122 0.522613 -0.414927 -0.74479 113 114 107
1.02839 1.34041 -3.4415 0.313066 -0.292712 -0.903498 108 109 107
1.04908 1.34971 -3.43595 0.568247 -0.0838981 -0.81857 118 121 118
1.06866 1.34942 -3.42581 0.470875 -0.159134 -0.867729 117 120 115
1.08967 1.37012 -3.41394 0.575685 -0.106212 -0.810744 106 107 96
1.1744 1.4045 -3.33652 0.644119 0.107188 -0.757378 69 69 60
1.33137 1.54171 -3.09867 0.53407 -0.737679 -0.413036 86 84 55
1.43638 1.66266 -2.86854 0.0280602 -0.852971 -0.521204 119 123 91
1.46925 1.6545 -2.89311 0.136495 -0.978164 -0.156732 121 124 91
1.48531 1.63788 -2.91049 0.120392 -0.980544 -0.155043 122 126 94
1.57705 1.62665 -2.92113 -0.0637609 -0.958851 -0.276657 124 126 96
1.55745 1.63175 -2.93019 -0.131983 -0.964611 -0.228268 124 126 96
1.59398 1.6214 -2.91435 0.00346109 -0.940257 -0.340449 123 125 94
1.59639 1.61991 -2.91487 0.00697137 -0.938743 -0.344547 123 125 94
1.61208 1.61804 -2.94029 -0.188982 -0.956362 -0.222841 123 126 97
1.65826 1.62007 -2.93664 -0.748572 -0.365124 -0.553465 123 127 100
1.63665 1.61646 -2.95599 -0.317961 -0.923356 -0.215207 123 127 98
1.6795 1.59033 -2.97474 -0.142399 -0.988916 -0.0420524 121 124 96
1.71229 1.59276 -2.98032 -0.0978722 -0.939955 -0.326965 122 125 97
1.69971 1.58599 -2.99389 -0.169386 -0.98516 -0.0277317 122 126 97
1.75771 1.61223 -2.94167 -0.0741148 -0.994015 -0.0802588 122 125 95
1.73749 1.60078 -2.98116 -0.0328743 -0.982306 -0.184375 123 127 98
1.7565 1.61817 -2.93396 -0.221649 -0.969465 -0.104927 121 125 95
1.87159 1.59577 -2.97156 -0.593834 -0.801754 0.0674617 123 127 101
1.90569 1.59651 -2.98733 -0.289892 -0.839117 -0.460266 120 124 95
1.95488 1.61023 -2.97003 -0.0454807 -0.992479 -0.113651 120 123 95
1.97076 1.57665 -3.02919 -0.524684 -0.801617 -0.286559 120 123 96
2.0289 1.59583 -2.97904 -0.218378 -0.950107 -0.22273 119 123 94
2.0551 1.59835 -2.95849 0.0230586 -0.972185 -0.233077 118 122 94
2.08008 1.61 -2.9584 -0.22742 -0.904822 -0.359968 116 119 90
2.06367 1.6032 -2.97527 -0.0641876 -0.946537 -0.316145 116 120 91
2.09324 1.59954 -2.95738 -0.104477 -0.900379 -0.422377 117 121 92
2.11155 1.60213 -2.96844 -0.21674 -0.849423 -0.481149 117 120 91
2.11402 1.59963 -2.96751 -0.223623 -0.820121 -0.526682 117 120 91
2.12769 1.60207 -2.98381 -0.142696 -0.971551 -0.189015 117 121 93
2.13004 1.60178 -2.98213 -0.242478 -0.926945 -0.286316 117 121 93
2.12441 1.59828 -2.98202 -0.241178 -0.914874 -0.323786 117 121 92
0.141385 1.14377 -3.84541 -0.0369332 -0.996962 -0.0685717 121 104 98
0.160323 1.14065 -3.85442 0.0653769 -0.995405 -0.0699583 115 93 80
0.255637 1.13985 -3.86435 0.058764 -0.994461 -0.087139 112 115 111
0.278499 1.1433 -3.84083 0.194448 -0.970548 -0.142222 100 104 97
0.295786 1.14385 -3.86198 0.141313 -0.98353 -0.112694 121 124 135
0.297021 1.14305 -3.86445 0.059362 -0.995449 -0.0745464 122 125 136
0.318749 1.14341 -3.85205 -0.0517948 -0.997423 -0.0496501 123 126 140
0.364317 1.14211 -3.84683 0.0829469 -0.995242 -0.0511118 115 122 144
0.389388 1.14363 -3.86225 0.0921373 -0.994261 -0.0543656 103 112 136
0.414146 1.14574 -3.84459 0.0848587 -0.994317 -0.0642827 93 102 129
0.440193 1.14494 -3.83335 0.102691 -0.993314 -0.0527508 108 114 135
0.461829 1.16044 -3.82574 0.24905 -0.799901 -0.546015 128 136 154
0.489731 1.16766 -3.80158 -0.269887 -0.81778 -0.508328 132 138 152
0.505849 1.16564 -3.81844 -0.591634 -0.707702 -0.38617 137 142 157
0.568805 1.15983 -3.83089 0.564837 -0.20296 -0.799854 133 136 144
0.586021 1.17089 -3.80176 0.394441 -0.710731 -0.582476 135 138 148
0.601499 1.17249 -3.78922 0.403394 -0.770146 -0.494114 129 132 141
0.617875 1.17953 -3.7936 0.556839 -0.471841 -0.683591 105 104 103
0.632917 1.18044 -3.78064 0.626683 -0.532729 -0.568743 117 117 117
0.645917 1.18208 -3.76627 0.624024 -0.664173 -0.411665 123 122 126
0.646485 1.18353 -3.76697 0.625776 -0.656276 -0.421553 120 119 122
0.686057 1.20395 -3.73882 0.659302 -0.460694 -0.594207 109 103 96
0.673867 1.2005 -3.75376 0.625594 -0.521862 -0.579907 107 101 91
0.714299 1.21665 -3.72585 0.632144 -0.324988 -0.703403 103 95 82
0.728714 1.22075 -3.71273 0.631899 -0.32691 -0.702733 101 93 80
0.743823 1.22455 -3.69972 0.630722 -0.331614 -0.701586 100 92 78
0.759475 1.22805 -3.68677 0.699625 -0.293756 -0.651331 98 90 75
0.772361 1.23388 -3.67268 0.720476 -0.279458 -0.63468 95 85 69
0.808946 1.24947 -3.63842 0.683951 -0.0622178 -0.726869 79 57 32
0.825048 1.26555 -3.62554 0.677169 -0.105797 -0.728182 79 53 28
0.840796 1.27065 -3.61342 0.677416 -0.189898 -0.710666 82 48 29
0.866476 1.29258 -3.591 0.684387 -0.054392 -0.727087 85 35 29
0.853456 1.27835 -3.60078 0.64798 -0.0253704 -0.761235 81 36 23
0.891551 1.29069 -3.5638 0.649443 -0.0705816 -0.757128 96 65 51
0.918521 1.31846 -3.54047 0.686622 -0.0398442 -0.725922 83 68 47
0.925661 1.31386 -3.53225 0.659931 0.0285002 -0.750786 87 73 53
0.959913 1.32658 -3.50157 0.702228 0.0179234 -0.711727 103 97 82
0.974604 1.33363 -3.48865 0.6618 -0.0281952 -0.74915 106 104 93
0.986334 1.3466 -3.47357 0.750661 -0.115513 -0.650512 107 106 99
1.00476 1.35954 -3.46375 0.509253 -0.49321 -0.705269 110 111 106
1.02239 1.35682 -3.4528 0.408207 -0.416262 -0.812461 103 105 102
1.04066 1.35703 -3.44328 0.580282 -0.121869 -0.805246 115 117 115
1.06048 1.36928 -3.43249 0.590359 -0.163102 -0.79049 118 120 111
1.08029 1.36987 -3.42075 0.58725 -0.112697 -0.801521 114 116 105
1.0933 1.39194 -3.41369 0.642563 -0.00123617 -0.766232 37 37 27
1.1095 1.37915 -3.40139 0.688836 0.0765542 -0.720863 30 30 20
1.15749 1.41491 -3.34968 0.633289 0.0562991 -0.771865 71 71 58
1.17177 1.42974 -3.33591 0.633916 0.0982067 -0.767141 99 99 85
1.43948 1.68129 -2.87528 -0.0153881 -0.876058 -0.48196 120 124 93
1.42086 1.67785 -2.86073 -0.488246 -0.852826 -0.185215 118 122 91
1.43926 1.68128 -2.87546 -0.0294024 -0.881593 -0.471094 120 124 93
1.45629 1.66801 -2.87856 -0.022047 -0.871049 -0.490701 121 125 94
1.4487 1.58498 -3.06264 0.50198 -0.827461 -0.251644 124 126 94
1.46846 1.59657 -3.03907 0.429225 -0.87905 -0.207454 123 126 94
1.54055 1.64303 -2.93531 -0.137669 -0.968189 -0.208943 123 127 97
1.58979 1.63035 -2.94487 -0.197497 -0.888185 -0.414877 124 127 99
1.53581 1.53382 -3.13249 -0.903096 -0.396638 -0.164606 129 133 108
1.53932 1.53416 -3.13248 -0.778445 -0.611444 -0.141986 129 133 108
1.61562 1.63086 -2.95656 -0.481457 -0.77146 -0.415991 124 128 100
1.55315 1.53089 -3.14039 -0.827492 -0.487018 -0.27941 129 133 108
1.56547 1.52222 -3.16358 -0.824601 -0.525574 -0.209296 129 133 109
1.63758 1.6243 -2.98817 -0.425427 -0.858217 -0.287185 125 128 102
1.66069 1.60926 -2.9777 -0.459352 -0.81005 -0.364437 124 128 100
1.67609 1.59893 -3.00655 -0.356905 -0.913354 -0.195969 124 128 101
1.71771 1.60947 -2.98715 -0.321365 -0.930825 -0.174037 124 127 100
1.74917 1.61271 -2.98686 -0.218575 -0.942618 -0.25238 124 128 100
1.74529 1.61781 -2.98422 -0.0369996 -0.977019 -0.209917 123 127 99
1.77124 1.623 -2.96032 -0.139502 -0.990219 -0.00224289 123 126 96
1.79476 1.62074 -2.95634 -0.411222 -0.901295 -0.136246 123 127 100
1.79265 1.62373 -2.98389 -0.288752 -0.944058 -0.159304 123 126 98
1.81003 1.62047 -2.98124 -0.331566 -0.939252 -0.0887092 124 128 100
1.8185 1.61762 -3.00141 -0.0455059 -0.908823 -0.414692 125 129 102
1.83268 1.61668 -2.96876 -0.344698 -0.933548 -0.0983461 121 125 97
1.84063 1.61358 -2.98937 -0.376892 -0.924681 0.0540124 123 127 100
1.85139 1.60939 -2.97688 -0.323057 -0.943693 -0.0712567 119 122 91
1.87826 1.60277 -3.00257 -0.341313 -0.936563 -0.0797218 121 125 97
1.87639 1.59826 -2.99939 -0.355758 -0.929466 -0.0976197 121 124 96
1.91268 1.60838 -3.00721 -0.236931 -0.928884 -0.284672 118 121 92
1.97856 1.59607 -3.02763 -0.505853 -0.774268 -0.38029 121 124 97
2.10225 1.61543 -2.96401 -0.266866 -0.813149 -0.517273 118 121 92
2.09188 1.62779 -2.96375 -0.247766 -0.753065 -0.609512 114 118 88
2.1042 1.62909 -2.98038 -0.214501 -0.832354 -0.511054 119 123 96
2.11383 1.61475 -2.98449 -0.323579 -0.83143 -0.451687 118 122 94
2.12106 1.61699 -2.97661 -0.181253 -0.908189 -0.377281 118 122 94
2.11971 1.60313 -3.01031 -0.417429 -0.869403 -0.264368 118 122 95
2.15907 1.63178 -2.96223 -0.445599 -0.862462 -0.240001 112 116 86
2.19005 1.61973 -2.95995 -0.115508 -0.985173 -0.126857 121 125 96
2.19907 1.63388 -2.96801 -0.510804 -0.64006 -0.573936 114 117 89
2.21498 1.62789 -2.95692 -0.428151 -0.633596 -0.644393 116 119 92
2.21202 1.62933 -2.95988 -0.146303 -0.765242 -0.626897 116 120 92
2.24026 1.61576 -2.9836 -0.127234 -0.979475 -0.156333 117 120 94
0.0472889 1.15174 -3.85549 -0.0198461 -0.998789 -0.0450266 115 123 135
0.131362 1.14683 -3.8911 -0.0608629 -0.995513 -0.0724573 122 127 143
0.172921 1.14729 -3.88255 -0.107465 -0.958472 -0.264163 122 110 113
0.169585 1.14788 -3.88251 -0.110626 -0.965451 -0.235939 127 118 125
0.196439 1.1397 -3.88076 0.00308804 -0.998508 -0.0545163 104 79 56
0.221182 1.13989 -3.89482 -0.044469 -0.992637 -0.112672 109 87 64
0.234294 1.14021 -3.87703 0.00824054 -0.997201 -0.0743084 122 116 109
0.254172 1.13995 -3.89533 0.0593617 -0.987702 -0.144644 124 119 124
0.274197 1.13915 -3.88407 0.152601 -0.962565 -0.224012 120 123 134
0.295386 1.1464 -3.89065 0.139914 -0.982231 -0.125089 121 124 140
0.302658 1.14876 -3.85653 0.22311 -0.947239 -0.23013 121 125 138
0.320959 1.1513 -3.87081 0.0508771 -0.974832 -0.217057 123 127 142
0.320224 1.15121 -3.8705 0.0519964 -0.974734 -0.217234 123 127 142
0.341974 1.1532 -3.85222 -0.145669 -0.937521 -0.315967 125 129 145
0.342697 1.15327 -3.85255 -0.140332 -0.942128 -0.30447 125 129 145
0.368247 1.13856 -3.87768 0.13829 -0.990378 -0.00533131 118 124 144
0.413559 1.14676 -3.87299 0.0393851 -0.995269 -0.0888166 127 136 156
0.4399 1.1479 -3.86089 0.146673 -0.988033 -0.0477163 126 135 155
0.493496 1.14856 -3.87575 0.667306 -0.538727 -0.514273 137 142 155
0.483635 1.1508 -3.86557 0.268431 -0.527144 -0.806266 140 144 156
0.536101 1.16154 -3.84786 0.301744 -0.280706 -0.911128 138 142 153
0.554238 1.15954 -3.84169 0.385175 -0.233433 -0.892832 136 139 148
0.577841 1.17474 -3.83038 0.56628 -0.411744 -0.713998 102 102 103
0.5932 1.17604 -3.81692 0.664578 -0.492544 -0.561904 110 111 113
0.603779 1.18134 -3.80579 0.482281 -0.451152 -0.750911 93 90 90
0.618527 1.18177 -3.79448 0.55436 -0.48306 -0.677745 99 96 93
0.617212 1.18209 -3.79566 0.545567 -0.475902 -0.689836 97 94 91
0.629864 1.19417 -3.79428 0.59939 -0.399623 -0.693565 88 79 62
0.64456 1.19665 -3.7811 0.653429 -0.410854 -0.63579 95 88 71
0.660236 1.19893 -3.76821 0.654559 -0.396503 -0.643691 96 90 75
0.684927 1.21726 -3.75356 0.647399 -0.354111 -0.674892 92 83 62
0.697889 1.2189 -3.73844 0.666364 -0.308956 -0.678605 86 78 62
0.722581 1.23534 -3.72538 0.665501 -0.183783 -0.723417 80 67 44
0.734115 1.24155 -3.71092 0.708961 -0.0411709 -0.704044 77 64 40
0.749697 1.24511 -3.69791 0.693685 -0.0221026 -0.719939 75 60 35
0.759003 1.25122 -3.68289 0.518734 -0.00304016 -0.85493 84 66 37
0.777121 1.25417 -3.67142 0.704967 -0.0227054 -0.708877 78 60 35
0.791085 1.25838 -3.65756 0.717686 -0.0134774 -0.696237 73 52 27
0.811092 1.27931 -3.63861 0.599168 -0.015685 -0.80047 73 40 21
0.827801 1.28736 -3.62557 0.650138 -0.0506435 -0.758126 93 55 39
0.844509 1.29736 -3.61014 0.698261 -0.129391 -0.704052 82 37 28
0.878051 1.3022 -3.57791 0.705111 -0.120749 -0.69874 85 44 36
0.89479 1.31113 -3.56562 0.733147 -0.00341624 -0.680062 100 83 68
0.908594 1.33193 -3.55342 0.737061 -0.178623 -0.651793 71 61 46
0.936808 1.34329 -3.52767 0.639138 -0.203697 -0.741626 98 92 86
0.950041 1.33989 -3.51432 0.613227 -0.138366 -0.777694 100 96 86
0.964938 1.3468 -3.50152 0.692353 -0.175116 -0.699987 104 103 95
0.986844 1.36879 -3.49074 0.601526 0.076365 -0.795195 119 119 114
0.998084 1.37713 -3.47412 0.449244 -0.337226 -0.82732 114 115 111
1.04829 1.38417 -3.44315 0.46455 -0.104219 -0.879393 116 119 111
1.06558 1.39029 -3.43208 0.466592 -0.173808 -0.867227 111 113 103
1.10785 1.40427 -3.40063 0.670527 0.00656405 -0.741856 29 30 20
1.11412 1.41271 -3.39559 0.707678 0.00127113 -0.706534 43 43 33
1.12371 1.42594 -3.3794 0.772787 -0.140088 -0.619012 91 90 78
1.15131 1.44255 -3.35104 0.692473 -0.0485215 -0.71981 99 97 83
1.16744 1.45675 -3.33495 0.568708 0.0641514 -0.820034 109 106 92
1.20404 1.4511 -3.3119 0.611651 -0.13859 -0.778894 94 93 83
1.18679 1.44499 -3.3231 0.577175 0.0577123 -0.814579 79 77 66
1.32716 1.55304 -3.16145 0.320762 -0.928181 -0.188655 102 102 70
1.3307 1.54673 -3.14118 0.248401 -0.957777 -0.144776 96 95 65
1.34003 1.55896 -3.15088 0.384211 -0.905456 -0.180364 113 112 79
1.36512 1.56389 -3.13439 0.318165 -0.936327 -0.148534 124 125 92
1.45731 1.68163 -2.89437 -0.112379 -0.905678 -0.408801 127 131 104
1.42368 1.56668 -3.13562 0.547246 -0.789382 -0.278206 126 129 95
1.42413 1.56771 -3.1338 0.561968 -0.77453 -0.290336 126 128 95
1.42413 1.56771 -3.1338 0.561968 -0.77453 -0.290336 128 130 96
1.43821 1.58523 -3.07698 0.536354 -0.798529 -0.27327 125 127 95
1.4504 1.58359 -3.09905 0.258097 -0.95528 -0.144313 126 128 97
1.4584 1.57967 -3.10005 0.356169 -0.920184 -0.162496 126 128 94
1.46207 1.5877 -3.08469 0.391865 -0.9018 -0.182206 125 127 95
1.52948 1.5647 -3.12502 -0.941891 -0.295252 -0.160211 129 133 110
1.54818 1.56047 -3.12968 -0.855849 -0.512983 -0.0661079 130 134 110
1.76835 1.63161 -2.99675 -0.274449 -0.951575 -0.1385 124 127 98
1.8071 1.62815 -3.00443 -0.308282 -0.942349 -0.130158 124 127 99
1.82705 1.63222 -3.01495 -0.498528 -0.865547 0.0479462 125 130 103
1.85636 1.61562 -3.00862 -0.327998 -0.940727 -0.086314 121 125 96
1.83977 1.62249 -3.01076 -0.182776 -0.983002 0.017318 125 129 102
1.87078 1.6209 -3.00352 -0.310514 -0.947624 -0.0747643 123 127 100
1.89987 1.62325 -3.01051 -0.144359 -0.989043 -0.0309069 118 122 91
1.8888 1.60879 -3.02512 -0.371355 -0.921408 -0.114465 123 126 100
1.87651 1.61094 -3.05531 -0.0680292 -0.959433 -0.273607 125 128 101
1.88935 1.5958 -3.05719 -0.158019 -0.987006 -0.0291465 123 127 101
1.90229 1.62276 -3.00941 -0.13584 -0.99073 0.00141269 118 122 91
1.91874 1.60056 -3.06259 -0.0542639 -0.994146 -0.093433 123 126 102
1.92334 1.61287 -3.05288 0.165938 -0.874043 -0.456633 124 127 102
1.93583 1.59621 -3.08317 -0.135087 -0.98595 -0.0982567 126 129 107
1.94923 1.6151 -3.01041 -0.322656 -0.819204 -0.474129 122 125 99
1.99224 1.61957 -3.03176 -0.468815 -0.866092 -0.173484 123 126 101
2.08557 1.63682 -2.98988 -0.40916 -0.802465 -0.434325 121 124 99
2.11189 1.62488 -3.00788 -0.171793 -0.928411 -0.329453 120 123 97
2.12828 1.61749 -3.02822 -0.413123 -0.908604 -0.061386 120 123 97
2.16424 1.61181 -3.03711 -0.123887 -0.99191 -0.0276998 116 120 92
2.21776 1.63502 -2.98745 -0.23027 -0.569144 -0.789336 117 121 95
2.23119 1.63719 -2.96928 -0.244669 -0.641571 -0.726996 116 120 94
0.153095 1.14878 -3.90084 -0.0841861 -0.983414 -0.160656 119 122 136
0.154033 1.14899 -3.89988 -0.0786242 -0.984045 -0.159604 119 121 136
0.196252 1.14209 -3.90815 -0.0340562 -0.997522 -0.0615657 120 103 101
0.237327 1.14462 -3.92098 -0.0203915 -0.998607 -0.0486628 106 77 55
0.253747 1.14468 -3.91888 0.101999 -0.964212 -0.244728 109 90 78
0.273781 1.14365 -3.9087 0.1157 -0.966077 -0.230886 124 121 132
0.273535 1.14432 -3.90807 0.148225 -0.963289 -0.22384 124 120 130
0.319134 1.15232 -3.90195 0.18023 -0.972952 -0.144508 125 128 143
0.343112 1.16061 -3.87043 -0.354012 -0.926441 -0.127991 125 128 143
0.343819 1.16064 -3.87081 -0.351779 -0.92747 -0.126695 125 128 143
0.465938 1.16336 -3.88127 0.636754 -0.75884 -0.136772 135 140 152
0.493054 1.16444 -3.88349 0.479514 -0.548767 -0.684779 135 139 150
0.50688 1.16094 -3.87416 0.694166 -0.260775 -0.670917 134 139 151
0.513097 1.16309 -3.8747 0.756816 -0.184984 -0.626905 131 136 147
0.531214 1.17548 -3.85884 0.430495 -0.498151 -0.752675 132 136 142
0.545882 1.17629 -3.8499 0.396858 -0.49103 -0.775496 125 127 131
0.560334 1.17582 -3.8397 0.50985 -0.42226 -0.749499 104 104 106
0.570974 1.18994 -3.83981 0.562215 -0.335792 -0.75575 109 107 102
0.587139 1.19481 -3.82544 0.585777 -0.290101 -0.756774 110 106 101
0.601371 1.19431 -3.81688 0.552503 -0.406101 -0.727889 92 87 79
0.616823 1.19518 -3.80599 0.571956 -0.42617 -0.700889 78 70 56
0.615766 1.19516 -3.80696 0.57418 -0.420371 -0.702571 77 70 56
0.613826 1.19345 -3.80527 0.480572 -0.452197 -0.751378 79 72 60
0.639592 1.2114 -3.79393 0.675657 -0.285977 -0.679488 79 68 40
0.627511 1.20973 -3.806 0.577837 -0.308264 -0.755697 76 66 42
0.626429 1.20979 -3.80696 0.573678 -0.312975 -0.756928 76 67 43
0.654597 1.21399 -3.78095 0.65481 -0.339015 -0.675495 82 72 43
0.669888 1.21647 -3.76789 0.651867 -0.333119 -0.681249 90 80 54
0.679376 1.23236 -3.76552 0.678765 -0.249394 -0.69071 76 66 42
0.694568 1.23655 -3.75088 0.698512 -0.185969 -0.691012 77 66 43
0.707009 1.23189 -3.73796 0.688805 -0.228898 -0.687861 77 66 43
0.734575 1.26463 -3.71052 0.722644 0.0234504 -0.690823 85 75 55
0.791733 1.28086 -3.65767 0.677366 -0.0143258 -0.735506 74 40 28
0.847292 1.32092 -3.60997 0.59545 -0.0881947 -0.798537 68 34 31
0.85956 1.32412 -3.59707 0.652971 -0.107879 -0.749661 68 37 34
0.879374 1.32795 -3.58014 0.605719 -0.171068 -0.777072 66 45 40
0.894715 1.33209 -3.56771 0.675328 -0.182278 -0.714637 68 57 48
0.913707 1.35217 -3.55318 0.715483 -0.197806 -0.670043 79 76 69
0.928237 1.3577 -3.54002 0.659701 -0.250556 -0.708532 88 86 82
0.940128 1.3578 -3.52774 0.570531 -0.202974 -0.795799 100 99 95
0.954903 1.36125 -3.51488 0.71119 -0.213944 -0.669655 108 107 104
0.969755 1.36684 -3.5011 0.765633 -0.199152 -0.611674 109 110 106
0.990927 1.39023 -3.4876 0.723081 -0.251018 -0.64354 114 114 111
1.00668 1.39472 -3.47543 0.45506 -0.305662 -0.836356 112 112 110
1.03907 1.40511 -3.44926 0.559476 -0.0954543 -0.823332 114 116 106
1.05754 1.41077 -3.43822 0.4115 -0.162573 -0.896793 103 104 92
1.07878 1.4129 -3.42474 0.609345 0.0248299 -0.792516 36 36 26
1.10159 1.43024 -3.40692 0.739123 -0.0978703 -0.666422 41 41 31
1.11517 1.43962 -3.39205 0.767236 -0.167269 -0.619168 77 76 64
1.19475 1.46522 -3.3234 0.472567 -0.24805 -0.845667 107 105 93
1.20482 1.48183 -3.32333 0.587722 -0.187267 -0.787092 82 81 68
1.18923 1.46912 -3.32191 0.644823 -0.0625001 -0.761772 107 106 93
1.21089 1.4708 -3.3119 0.602176 -0.212307 -0.769617 88 87 75
1.29836 1.54702 -3.2022 0.427471 -0.841268 -0.330962 79 78 52
1.33291 1.56659 -3.17245 0.36993 -0.877667 -0.304717 117 118 85
