ply
format ascii 1.0
element vertex 53
property float x
property float y
property float z
property uchar diffuse_red
property uchar diffuse_green
property uchar diffuse_blue
end_header
-0.0408018 -0.51287 0.0296525 0 255 0
-0.777939 -0.287063 0.46433 0 255 0
-0.163389 -0.566222 0.0380121 0 255 0
-0.431884 -0.56751 0.125102 0 255 0
-0.642824 -0.381318 0.356897 0 255 0
-0.866115 -0.109598 0.275083 0 255 0
0.282841 -0.405891 -0.0250074 0 255 0
0.156552 -0.222282 -0.263081 0 255 0
0.235215 -0.0735422 -0.141576 0 255 0
0.419191 -0.154781 -0.0546118 0 255 0
-0.951538 -0.0220898 0.0349336 0 255 0
-0.964649 -0.0177807 0.0473601 0 255 0
-0.932316 -1.13266e-008 -0.166621 255 0 255
-0.93877 0.0417693 0.248123 255 0 255
-0.897194 0.0175286 -0.365183 0 255 0
-0.7122 0.00412926 -0.530767 0 255 0
-0.525637 -0.0264574 -0.641256 255 0 255
-0.118159 -0.0702809 -0.577164 255 0 255
0.0836446 -0.127903 -0.556009 255 0 255
0.0492119 0.0799817 -0.640865 255 0 255
0.205768 -0.394285 0.54494 0 255 0
0.0959912 -0.431641 0.693218 0 255 0
-0.143963 -0.448941 0.840723 255 0 255
-0.313311 -0.413317 0.792935 0 255 0
-0.434121 -0.393872 0.815886 255 0 255
-0.565697 -0.34182 0.8937 255 0 255
-0.57317 -0.221609 0.878397 255 0 255
-0.609548 -0.267382 0.981957 255 0 255
-0.406066 -0.243966 1.00219 0 255 0
-0.527626 -0.237818 0.664747 255 0 255
-0.136778 -0.153253 0.954098 255 0 255
0.1504 -0.199981 0.912997 255 0 255
0.178547 -0.144002 0.945666 255 0 255
-0.257692 -0.0340404 1.05422 255 0 255
-0.387906 -0.0140006 1.09985 0 255 0
0.323622 -0.147531 0.705593 0 255 0
0.359387 5.41513e-009 0.706475 255 0 255
-0.0610622 -0.0385096 1.06605 255 0 255
0.435262 -0.030649 0.556585 255 0 255
-0.258496 0.241449 -0.575882 255 0 255
-0.398586 0.336727 -0.533678 255 0 255
-0.618813 0.410679 -0.4834 255 0 255
-0.926381 0.40293 -0.370362 255 0 255
-0.781555 -0.10866 0.933135 255 0 255
-0.948261 -0.0474932 0.652769 255 0 255
-1.06258 -0.0956568 0.858119 255 0 255
-1.25318 -0.0427382 0.737619 0 255 0
0.322078 -0.195581 0.128604 255 0 255
-1.39547 0.0523681 0.625471 255 0 255
-0.628363 7.22043e-009 1.11201 255 0 255
0.518279 0.0251135 0.348522 255 0 255
0.433154 0.035555 0.0808455 255 0 255
-1.14931 0.352902 0.00471528 0 255 0
