ply
format ascii 1.0
element vertex 719
property float x
property float y
property float z
property float nx
property float ny
property float nz
property uchar diffuse_red
property uchar diffuse_green
property uchar diffuse_blue
end_header
-0.1725 -0.32033 3.60381 -0.383439 0.202472 -0.901099 11 10 17
0.19651 -0.33608 3.5896 -0.775942 0.156891 -0.610983 9 8 16
0.202475 -0.334077 3.59029 -0.785671 0.243765 -0.568595 14 11 19
0.21038 -0.335334 3.58625 -0.302232 0.190989 -0.933905 31 25 27
0.500634 -0.342311 3.5425 -0.52299 0.817248 -0.242049 25 22 24
0.50731 -0.33946 3.54267 -0.905026 0.372913 -0.204605 28 22 24
0.514627 -0.341236 3.53337 -0.941261 0.0722121 -0.32987 10 8 16
-2.3168 -0.314544 4.40474 -0.14197 -0.210712 -0.967184 47 41 42
-2.30496 -0.314243 4.40057 -0.133378 -0.212482 -0.968019 47 41 43
-2.28999 -0.317338 4.3967 -0.13725 -0.486677 -0.862733 50 43 45
-2.27188 -0.314627 4.39287 0.171664 0.554276 -0.814438 50 41 44
-2.25015 -0.311891 4.38035 -0.18559 -0.299659 -0.935821 49 41 44
-2.19019 -0.306808 4.28238 -0.259807 -0.0879172 -0.96165 50 44 46
-2.22874 -0.308683 4.37385 0.0634193 -0.132771 -0.989116 49 41 43
-2.15543 -0.309343 4.28028 0.533739 -0.364897 -0.762872 52 48 49
-2.20473 -0.311583 4.37808 0.131625 0.0264317 -0.990947 48 43 45
-2.1572 -0.313538 4.38528 -0.243487 0.306202 -0.920301 50 43 47
-2.13745 -0.319032 4.38286 -0.0825129 0.181732 -0.97988 53 47 50
-2.12133 -0.314085 4.38185 -0.0242182 -0.264414 -0.964105 49 44 47
-2.11189 -0.314077 4.38154 0.0649784 -0.304583 -0.950267 50 44 47
-2.09522 -0.319786 4.37313 -0.0971945 0.0301617 -0.994808 52 48 51
-2.08911 -0.319781 4.3812 -0.0425726 -0.0684336 -0.996747 51 48 51
-2.07189 -0.319136 4.38258 -0.0887466 -0.635397 -0.767069 50 48 52
-2.07129 -0.32077 4.38053 0.123559 0.713766 -0.689399 52 49 53
-2.05549 -0.321829 4.36473 -0.101949 0.355142 -0.929237 53 51 54
-2.03788 -0.317826 4.36865 -0.0764257 -0.0302352 -0.996617 51 47 51
-2.01253 -0.3213 4.36505 -0.0254323 -0.192845 -0.9809 54 50 54
-1.99605 -0.321635 4.36951 0.234606 0.254898 -0.938076 52 50 54
-1.99485 -0.321587 4.36749 0.12191 0.031718 -0.992034 53 50 54
-1.9855 -0.321326 4.36624 0.00792115 -0.150486 -0.98858 53 49 53
-1.95288 -0.325448 4.36961 0.0532744 0.885249 -0.462056 56 54 59
-1.92063 -0.322773 4.36465 0.0467656 0.366666 -0.929177 53 51 57
-1.8787 -0.319809 4.34487 0.841924 -0.356334 -0.405203 53 49 54
-1.88242 -0.323334 4.35483 0.20773 0.344116 -0.91566 54 51 55
-1.86886 -0.323034 4.36548 -0.117798 0.091101 -0.98885 53 51 55
-1.85993 -0.323107 4.36497 -0.21932 -0.060062 -0.973803 54 51 55
-1.86333 -0.330025 4.35785 0.00473492 0.27009 -0.962823 64 65 68
-1.85618 -0.326071 4.35824 -0.0328211 0.77117 -0.635782 56 53 57
-1.85113 -0.32345 4.36553 -0.277357 -0.0674678 -0.958395 54 51 55
-1.85538 -0.323188 4.35803 0.332477 0.573593 -0.748632 54 51 55
-1.84128 -0.323145 4.36044 -0.175415 -0.0345215 -0.983889 53 50 55
-1.83592 -0.330441 4.35504 -0.000271529 0.221064 -0.975259 63 65 68
-1.83219 -0.323095 4.35845 -0.105535 -0.19159 -0.975785 54 51 55
-1.8233 -0.323065 4.35726 -0.128929 -0.289294 -0.948518 54 51 55
-1.81327 -0.328933 4.34261 -0.000842173 0.816108 -0.577899 59 60 62
-1.80195 -0.32785 4.33447 -0.12907 -0.124356 -0.983807 59 58 61
-1.79335 -0.327897 4.33373 -0.150875 -0.108203 -0.982613 57 56 59
-1.78471 -0.327945 4.33279 -0.137881 -0.167753 -0.976139 56 56 58
-1.77626 -0.328051 4.33246 -0.143695 -0.146144 -0.978772 56 55 59
-1.76792 -0.328189 4.33234 -0.158571 -0.0872443 -0.983486 56 55 59
-1.6737 -0.331705 4.3323 -0.131636 0.725085 -0.675961 62 63 67
-1.57909 -0.335698 4.31371 0.0182738 0.827839 -0.560667 87 90 92
-1.56748 -0.334415 4.31581 -0.108706 0.799334 -0.590972 75 77 79
-1.57321 -0.332761 4.32408 -0.36193 0.632214 -0.685064 65 66 70
-1.55853 -0.334096 4.31194 -0.145771 -0.123738 -0.98155 74 76 79
-1.54259 -0.334541 4.3132 0.0544439 0.502028 -0.863136 75 78 80
-1.52131 -0.332963 4.31252 -0.0659298 0.812827 -0.578762 65 67 71
-1.51411 -0.332082 4.30201 -0.37639 -0.203331 -0.903873 65 66 70
-1.23802 -0.279148 3.67617 -0.395425 0.354831 -0.847192 33 40 54
-1.24296 -0.284436 3.68427 -0.464127 0.177081 -0.867887 33 41 59
-1.12781 -0.269308 3.51346 0.718813 -0.02216 -0.69485 23 36 46
-1.12325 -0.273479 3.52041 0.774407 -0.138779 -0.61728 29 41 51
-1.11821 -0.270469 3.52451 0.609688 0.252318 -0.75141 52 57 61
-1.10765 -0.268629 3.51855 -0.187252 -0.201096 -0.961508 40 37 33
-1.09368 -0.269517 3.51594 0.375704 -0.0310072 -0.926221 37 35 31
-1.09532 -0.270554 3.51926 -0.442837 0.104725 -0.890465 38 35 31
-1.09359 -0.270341 3.51505 0.201183 0.013486 -0.979461 38 35 31
-1.08809 -0.270094 3.51571 -0.250591 0.126298 -0.959819 36 34 30
-1.0822 -0.269613 3.51572 -0.298257 -0.0243069 -0.954176 22 22 23
-1.07679 -0.269385 3.51595 -0.465294 -0.055992 -0.883383 21 21 23
-1.03319 -0.272093 3.51241 0.82793 -0.330009 -0.453461 20 20 21
-1.02891 -0.272607 3.52093 0.401488 -0.25735 -0.878964 19 19 19
-1.02292 -0.272496 3.52125 0.281647 0.116054 -0.952474 20 19 20
-1.01713 -0.272519 3.5219 0.245464 0.229344 -0.941886 22 20 18
-1.0193 -0.2773 3.5188 -0.00253758 0.288122 -0.95759 20 19 20
-1.0136 -0.27727 3.51994 0.0510461 0.289014 -0.955963 20 19 19
-1.01153 -0.272436 3.52235 0.133544 0.392243 -0.910116 30 23 16
-1.00768 -0.277241 3.51993 0.0743008 0.43095 -0.899312 21 19 18
-1.0051 -0.272567 3.52344 0.126032 0.405739 -0.905258 38 28 14
-1.00213 -0.277416 3.52236 0.191093 0.196306 -0.961742 23 20 16
-0.996393 -0.277575 3.52204 0.221029 0.351997 -0.90953 25 22 17
-0.990362 -0.277735 3.52204 0.0173196 0.635047 -0.772279 25 22 17
-0.983573 -0.276798 3.52221 0.0837586 0.229972 -0.969586 28 23 15
-0.97846 -0.277853 3.52212 0.0644702 0.357665 -0.931622 23 21 15
-0.975218 -0.2747 3.52295 0.266074 -0.464057 -0.8449 33 25 13
-0.972199 -0.278101 3.52408 0.164452 -0.190344 -0.967845 21 19 16
-0.973062 -0.279856 3.52457 0.234229 -0.307741 -0.922189 20 19 17
-0.968491 -0.27459 3.52441 0.214112 -0.395108 -0.893334 26 21 14
-0.962082 -0.274459 3.52516 0.155214 -0.297415 -0.942047 21 18 16
-0.960466 -0.278633 3.52069 0.185692 0.375949 -0.907844 19 18 17
-0.953449 -0.279134 3.52351 0.707147 0.393406 -0.587516 18 18 17
-0.624438 -0.292223 3.51428 -0.741385 -0.277102 -0.611198 14 12 11
-0.566452 -0.294232 3.51199 0.634095 0.424977 -0.646001 13 12 11
-0.566538 -0.294337 3.51306 0.63533 0.423313 -0.64588 13 12 11
-0.566538 -0.294337 3.51306 0.63533 0.423313 -0.64588 13 12 11
-0.537281 -0.293949 3.51016 -0.699081 0.509933 -0.501252 13 12 11
-0.503523 -0.295235 3.50151 -0.472401 -0.175705 -0.863693 13 12 13
-0.499056 -0.29254 3.49789 -0.628233 0.0612379 -0.775612 18 17 15
-0.495654 -0.291198 3.49437 -0.719403 -0.0164933 -0.694397 30 27 21
-0.498726 -0.292749 3.49883 -0.736928 0.0390521 -0.674842 18 17 15
-0.490217 -0.291114 3.49095 -0.708395 0.0325247 -0.705067 34 30 22
-0.471698 -0.2897 3.48404 0.600888 0.282866 -0.74761 37 32 24
-0.472833 -0.294695 3.48909 0.438438 0.0867697 -0.894563 35 30 23
-0.465104 -0.293851 3.49096 0.71865 0.16648 -0.67515 34 27 21
-0.188352 -0.314355 3.60682 -0.90182 0.0947103 -0.421605 34 27 29
-0.182719 -0.31451 3.60519 -0.483718 0.196792 -0.852813 30 23 26
-0.176101 -0.314252 3.60446 0.277145 0.131405 -0.9518 15 13 20
-0.169186 -0.314269 3.60664 -0.537328 0.24787 -0.806126 11 10 17
0.192504 -0.32963 3.59068 -0.290461 0.891136 -0.348581 8 7 14
0.19888 -0.328908 3.59072 -0.526187 0.236578 -0.816797 11 9 18
0.204464 -0.326884 3.58943 -0.782151 0.149508 -0.604886 20 17 22
0.208846 -0.33131 3.58466 -0.726041 0.13983 -0.673284 30 25 27
0.213152 -0.32787 3.58095 -0.182731 -0.782184 -0.595649 33 26 28
0.511386 -0.335801 3.53602 -0.974222 0.0965024 -0.203908 15 12 19
-2.3176 -0.304549 4.3944 -0.372896 -0.383135 -0.845078 44 38 40
-2.22463 -0.30879 4.38378 0.107924 -0.253612 -0.961267 48 41 43
-2.20938 -0.30755 4.37517 0.0375329 0.167049 -0.985234 47 41 43
-2.2034 -0.30869 4.37878 0.27314 0.0315805 -0.961456 48 42 44
-2.14333 -0.310913 4.38723 -0.416847 0.406279 -0.813128 48 43 46
-2.12924 -0.309885 4.37702 -0.318926 -0.229346 -0.919612 48 43 46
-2.12002 -0.310292 4.37695 -0.272448 -0.195974 -0.942001 48 43 46
-2.0284 -0.30858 4.35651 -0.0714237 -0.061299 -0.995561 47 43 47
-2.03948 -0.309138 4.36103 -0.396392 -0.431017 -0.810616 47 43 46
-2.01714 -0.308131 4.34955 0.414807 -0.468268 -0.780167 48 44 48
-2.00943 -0.30819 4.35344 0.380045 -0.221678 -0.898011 49 44 49
-2.01666 -0.313541 4.36269 0.0224197 -0.263312 -0.96445 50 45 50
-2.00238 -0.309125 4.35785 0.646583 -0.29509 -0.703458 48 44 48
-1.98351 -0.311982 4.35102 0.4053 0.0935083 -0.909389 50 45 49
-1.93035 -0.32292 4.44679 0.260476 -0.228294 -0.938101 51 50 54
-1.90693 -0.322053 4.40854 0.16681 0.218465 -0.961482 51 49 53
-1.60197 -0.270379 3.80514 0.279993 -0.136617 -0.950231 82 80 81
-1.58525 -0.2713 3.79816 0.335215 -0.0186802 -0.941957 87 86 87
-1.60071 -0.273306 3.83556 0.316155 -0.105113 -0.942867 81 80 81
-1.84608 -0.314582 4.36075 -0.50347 -0.292635 -0.812947 50 47 51
-1.84524 -0.314733 4.3573 -0.500331 -0.299739 -0.812296 50 47 51
-1.83672 -0.315127 4.35878 -0.381916 -0.172525 -0.907951 50 47 52
-1.7897 -0.319993 4.33767 -0.0279161 -0.102581 -0.994333 52 48 53
-1.7813 -0.320658 4.3332 -0.148558 -0.242615 -0.958681 52 48 53
-1.77253 -0.320645 4.3321 -0.107055 -0.19769 -0.974401 51 48 53
-1.72224 -0.318567 4.32386 -0.062125 -0.768275 -0.637098 52 50 55
-1.74663 -0.32286 4.37233 -0.194035 -0.471754 -0.860115 52 50 55
-1.67973 -0.322594 4.33285 -0.0269546 0.248998 -0.968129 52 50 55
-1.66913 -0.324138 4.33569 -0.101587 0.756023 -0.646614 54 52 58
-1.65875 -0.324346 4.32763 -0.443792 -0.0998425 -0.890551 55 52 59
-1.65978 -0.325267 4.33751 -0.222815 0.744206 -0.629691 55 52 59
-1.6598 -0.325117 4.33731 -0.234955 0.737566 -0.633081 55 52 59
-1.66288 -0.325047 4.34063 -0.376091 0.315541 -0.8712 54 52 58
-1.56663 -0.328625 4.32588 -0.179689 0.671737 -0.718666 58 56 65
-1.55785 -0.320697 4.31692 -0.205278 -0.186459 -0.960778 52 52 60
-1.25532 -0.274395 3.68965 -0.291357 -0.132505 -0.947393 59 72 92
-1.24859 -0.272219 3.68764 -0.382665 0.215405 -0.898425 31 39 58
-1.24612 -0.278286 3.68716 -0.352437 0.137675 -0.925653 32 40 59
-1.2525 -0.278551 3.68747 -0.520692 -0.244608 -0.817953 54 66 88
-1.21242 -0.270047 3.64326 -0.265457 0.787038 -0.55687 27 32 45
-1.12736 -0.261354 3.51292 0.795534 -0.0506068 -0.603792 25 37 49
-1.1097 -0.266275 3.52791 0.300814 0.0593094 -0.951837 40 37 32
-1.10549 -0.264509 3.51823 0.342619 0.140897 -0.928849 39 37 32
-1.09061 -0.264959 3.51396 0.290468 -0.00208138 -0.956882 37 35 30
-1.09074 -0.264634 3.51622 -0.0475436 -0.0374504 -0.998167 37 35 31
-1.08493 -0.264922 3.51583 0.351041 0.0116986 -0.936287 26 25 25
-1.02581 -0.267493 3.5206 0.254422 0.115471 -0.960175 21 20 19
-1.02032 -0.267545 3.52229 0.0663474 -0.0901092 -0.99372 30 24 16
-1.01441 -0.267529 3.52264 0.113332 0.166096 -0.979575 42 29 13
-1.00876 -0.267542 3.52344 -0.0668888 -0.0321014 -0.997244 44 30 11
-0.998983 -0.272558 3.52418 0.199967 0.490744 -0.848047 41 29 12
-0.992958 -0.272238 3.52365 0.264471 0.454664 -0.850491 43 30 11
-0.986868 -0.272019 3.52423 0.0562211 0.467308 -0.882305 43 30 11
-0.980728 -0.271991 3.52445 0.00507118 0.537735 -0.843099 43 30 10
-0.975602 -0.269036 3.52423 0.053625 0.149567 -0.987296 44 30 9
-0.964437 -0.269417 3.52421 0.119517 -0.236431 -0.96427 40 28 12
-0.956405 -0.273983 3.52319 -0.205449 0.122206 -0.971008 19 18 17
-0.958031 -0.269308 3.52371 0.145076 -0.232341 -0.961754 28 22 14
-0.952132 -0.269366 3.52529 0.0880849 -0.221588 -0.971154 20 18 16
-0.946636 -0.268903 3.52288 -0.180337 0.163934 -0.969848 18 17 17
-0.949839 -0.273992 3.52343 -0.504663 -0.276675 -0.817781 19 18 17
-0.943251 -0.274377 3.52522 0.728237 0.283986 -0.623717 18 18 18
-0.680962 -0.280125 3.51548 -0.662134 0.513196 -0.546085 16 14 14
-0.653459 -0.279059 3.51132 -0.702561 0.454139 -0.547875 14 13 12
-0.507466 -0.285773 3.50576 -0.830066 0.0647836 -0.55389 12 11 11
-0.503317 -0.28913 3.49954 -0.525766 0.0797504 -0.846882 13 12 13
-0.498674 -0.286331 3.49688 -0.529489 0.0285817 -0.847835 20 19 16
-0.498764 -0.286823 3.49699 -0.533423 0.0262495 -0.845441 20 19 16
-0.492938 -0.286172 3.49478 -0.428978 0.0416729 -0.902353 34 30 22
-0.185183 -0.308838 3.60479 -0.53979 0.287948 -0.79102 31 24 26
-0.17932 -0.309262 3.60587 -0.414456 0.173281 -0.89342 23 19 23
-0.172906 -0.308051 3.60596 -0.359424 0.185973 -0.914455 12 10 18
0.193984 -0.323136 3.58578 -0.487418 0.237887 -0.840139 9 8 16
0.209616 -0.324336 3.58729 -0.777292 0.011694 -0.629031 30 25 26
0.50541 -0.333659 3.5453 -0.616186 0.747291 -0.248737 28 23 23
0.510776 -0.330384 3.54204 -0.978945 0.03018 -0.201882 24 20 22
0.514162 -0.331232 3.53615 -0.948288 0.145097 -0.282306 11 9 17
0.515648 -0.331944 3.53363 -0.975002 0.0941719 -0.201253 9 7 16
-2.21237 -0.299771 4.37264 -0.130245 0.281164 -0.95078 45 39 41
-2.2041 -0.299606 4.37538 0.0321264 0.273316 -0.961388 45 38 41
-2.2117 -0.294162 4.40368 -0.322148 -0.0882774 -0.942564 44 38 40
-2.14257 -0.303777 4.39772 -0.405819 -0.121264 -0.905873 47 41 44
-2.01451 -0.300709 4.36141 -0.451415 -0.332122 -0.828203 46 42 46
-1.99373 -0.298637 4.3595 0.146482 0.0899792 -0.985113 46 41 46
-1.99174 -0.305997 4.36013 0.563011 0.00728022 -0.826417 48 43 48
-1.99326 -0.300219 4.36404 -0.169477 0.344041 -0.923533 47 42 46
-1.9823 -0.305892 4.35864 0.585577 0.0258068 -0.810206 47 43 48
-1.55728 -0.266178 3.78018 0.10648 -0.11572 -0.987558 76 74 75
-1.7644 -0.314112 4.33936 -0.401467 -0.391442 -0.828008 50 47 52
-1.68251 -0.315063 4.33623 -0.453019 0.559589 -0.693998 51 49 54
-1.57919 -0.316952 4.3673 0.0224184 -0.170663 -0.985074 50 48 59
-1.47448 -0.307806 4.19483 -0.521443 -0.390776 -0.758546 51 52 60
-1.25226 -0.266673 3.68793 -0.521965 0.18161 -0.833409 37 46 66
-1.24494 -0.265703 3.6806 -0.403659 0.124179 -0.906443 32 38 52
-1.43591 -0.32194 4.30714 -0.397581 0.66179 -0.635581 45 48 58
-1.10808 -0.255658 3.51566 -0.661464 0.0301494 -0.749371 40 37 33
-1.11346 -0.259708 3.52157 -0.375704 0.00483674 -0.926727 40 39 37
-1.102 -0.260553 3.52242 -0.295193 -0.0327874 -0.954875 37 35 32
-1.09388 -0.259927 3.51448 -0.0706343 -0.0646436 -0.995405 38 35 30
-1.08767 -0.259748 3.51465 0.384905 -0.048222 -0.921696 36 32 30
-1.07615 -0.261788 3.51737 -0.104697 0.784862 -0.610762 21 21 23
-1.07602 -0.260043 3.5126 -0.197554 0.760057 -0.6191 22 21 24
-1.03453 -0.262524 3.51908 0.244455 0.129885 -0.960922 20 19 20
-1.04011 -0.262522 3.51763 -0.33273 0.419119 -0.844766 20 20 20
-1.0289 -0.262573 3.52127 0.210193 0.0860268 -0.973868 23 20 18
-1.02341 -0.262625 3.52272 0.18875 0.0387712 -0.98126 38 28 14
-1.01765 -0.262597 3.52347 0.055928 -0.0513617 -0.997113 45 31 11
-1.01138 -0.262554 3.52277 -0.0103956 -0.120545 -0.992653 45 30 10
-1.00432 -0.264518 3.52176 0.689731 -0.273457 -0.670442 45 30 10
-1.00061 -0.263591 3.52251 0.591619 -0.360227 -0.721266 45 30 10
-0.994915 -0.263658 3.52338 0.286222 0.38806 -0.876063 44 29 9
-0.986344 -0.263154 3.52345 -0.0111055 0.208473 -0.977965 44 29 9
-0.975787 -0.261084 3.52437 0.157241 0.0240946 -0.987266 44 29 9
-0.967598 -0.264342 3.52364 -0.382478 -0.217046 -0.89811 44 29 9
-0.961307 -0.264285 3.52372 -0.109401 -0.02245 -0.993744 44 30 9
-0.961343 -0.264288 3.52376 -0.117324 -0.0218322 -0.992854 44 30 9
-0.955091 -0.264235 3.52405 -0.0206836 -0.0746817 -0.996993 39 28 11
-0.949416 -0.264299 3.52469 0.0358914 -0.135181 -0.990171 24 20 14
-0.943371 -0.264239 3.52408 -0.00342537 -0.0383444 -0.999259 18 18 17
-0.936991 -0.26406 3.52293 -0.420486 -0.134931 -0.89721 18 17 17
-0.696821 -0.272663 3.50725 -0.706364 0.42347 -0.567207 15 14 13
-0.689202 -0.274418 3.51425 -0.662204 0.508402 -0.550466 15 13 12
-0.680606 -0.273319 3.51669 -0.569367 0.632866 -0.524691 14 12 12
-0.675092 -0.27343 3.5182 0.0069512 0.17693 -0.984199 15 13 11
-0.669349 -0.273407 3.51792 -0.0108961 0.176525 -0.984236 16 14 12
-0.672091 -0.278687 3.52022 0.687037 -0.412615 -0.598105 16 14 13
-0.666039 -0.274261 3.5117 -0.0307391 0.756787 -0.652939 15 14 12
-0.660178 -0.276961 3.51458 -0.707147 0.441321 -0.55243 15 13 12
-0.653043 -0.273552 3.51276 -0.156897 0.679714 -0.7165 15 13 10
-0.643771 -0.275569 3.51235 -0.575051 0.636391 -0.514123 14 12 11
-0.636121 -0.276604 3.50729 0.53749 0.560387 -0.630136 16 14 14
-0.611111 -0.276343 3.51051 -0.747954 0.377691 -0.545815 13 12 12
-0.600243 -0.275436 3.51019 -0.0904522 0.804802 -0.58661 12 11 12
-0.600093 -0.275499 3.50989 -0.0785401 0.803805 -0.589685 13 11 12
-0.50734 -0.282098 3.50491 -0.815624 0.0631081 -0.575131 12 11 10
-0.501678 -0.281725 3.4979 -0.332492 -0.0640336 -0.94093 13 13 12
-0.501647 -0.281245 3.49765 -0.309677 -0.0884759 -0.946716 13 13 12
-0.495929 -0.281204 3.49599 -0.24551 -0.0861858 -0.965555 30 27 20
-0.490201 -0.281105 3.49349 -0.599711 -0.0149248 -0.800078 35 30 22
-0.466022 -0.284503 3.49482 0.735164 0.0953078 -0.671156 35 29 21
-0.46608 -0.284448 3.49443 0.731529 0.11084 -0.672741 36 29 21
-0.1818 -0.303895 3.60744 -0.506599 0.158094 -0.847563 28 23 26
-0.170597 -0.303878 3.60701 -0.240045 0.24944 -0.938167 11 10 18
-0.165848 -0.303205 3.60084 -0.0217393 0.910498 -0.412941 10 9 16
0.18758 -0.319077 3.58742 0.0951824 0.731734 -0.674911 8 7 16
0.205951 -0.319786 3.58991 -0.768789 0.148033 -0.622133 25 21 24
0.20979 -0.316715 3.58246 -0.960441 0.0650126 -0.270788 31 24 26
0.507356 -0.325059 3.54509 -0.971617 -0.092844 -0.217579 28 23 23
0.51344 -0.325957 3.53624 -0.97464 -0.0327815 -0.221363 10 9 16
-2.10941 -0.28859 4.36391 -0.422188 -0.362474 -0.830885 44 38 42
-2.0915 -0.288479 4.35892 0.364998 -0.157871 -0.917526 45 38 42
-2.08419 -0.287234 4.35531 -0.238837 0.122489 -0.963303 45 38 42
-2.07144 -0.291018 4.35959 -0.438896 -0.330744 -0.835451 44 39 43
-2.05344 -0.289569 4.35538 -0.249446 -0.220311 -0.942995 43 39 43
-2.04861 -0.291211 4.3634 -0.43474 -0.360452 -0.825273 44 39 43
-2.01325 -0.290297 4.34742 -0.285121 -0.201919 -0.936982 44 39 43
-2.00707 -0.290859 4.35104 -0.342406 -0.267138 -0.900775 45 39 44
-2.01006 -0.294732 4.3595 0.484147 0.2169 -0.847677 45 40 45
-1.99756 -0.291 4.34902 -0.266907 -0.12383 -0.955734 43 38 42
-1.99006 -0.291427 4.36182 0.365875 0.236951 -0.899994 42 38 41
-1.98137 -0.291233 4.36317 0.291766 -0.0556546 -0.954869 42 37 41
-1.96925 -0.292031 4.35459 -0.2231 -0.12283 -0.967026 42 38 41
-1.84173 -0.299898 4.36994 -0.474803 -0.0833364 -0.876138 47 44 48
-1.56814 -0.265667 3.82977 0.0916863 0.338646 -0.936436 59 59 63
-1.57259 -0.265462 3.83541 0.157166 0.673036 -0.722718 56 56 61
-1.57259 -0.265462 3.83541 0.157166 0.673036 -0.722718 56 56 61
-1.56633 -0.260055 3.83567 0.100897 0.584055 -0.805419 48 46 51
-1.24957 -0.258733 3.68829 -0.579211 0.408422 -0.705483 33 39 54
-1.24517 -0.264715 3.68385 -0.34064 0.463541 -0.817981 32 37 52
-1.25188 -0.265093 3.69208 -0.35831 0.397415 -0.844793 35 43 61
-1.22498 -0.262501 3.66053 -0.602084 0.361078 -0.712122 28 32 46
-1.22314 -0.25915 3.66427 -0.250003 0.792969 -0.555606 28 31 45
-1.12666 -0.253756 3.51475 0.788058 -0.092134 -0.608667 26 38 49
-1.11333 -0.251177 3.51953 -0.611717 -0.0131742 -0.790967 39 37 35
-1.10269 -0.255531 3.52023 -0.630806 0.333388 -0.700669 39 36 32
-1.09586 -0.25454 3.51119 -0.225892 0.0536103 -0.972676 38 35 30
-1.09032 -0.254552 3.5132 0.314631 -0.0372407 -0.948483 38 35 30
-1.08753 -0.249476 3.51415 0.398117 -0.077212 -0.914079 34 32 29
-1.08498 -0.254622 3.51598 0.374781 -0.00445643 -0.927103 26 25 24
-1.08473 -0.254494 3.51682 0.910203 0.0427608 -0.411948 26 25 24
-1.03962 -0.252315 3.51569 0.528768 0.00238897 -0.848763 20 20 20
-1.04274 -0.255078 3.50755 0.754307 -0.239604 -0.611238 20 19 20
-1.03473 -0.252514 3.51993 0.288031 0.0192265 -0.957428 27 22 17
-1.0373 -0.257508 3.51831 0.246708 0.0783786 -0.965915 20 20 20
-1.02863 -0.252522 3.52043 0.0986504 -0.0272895 -0.994748 44 30 12
-1.02576 -0.257531 3.52084 0.143681 0.100291 -0.984529 43 30 13
-1.01857 -0.253721 3.52169 0.182293 -0.362493 -0.913985 45 30 10
-1.02029 -0.257479 3.52211 -0.00829925 -0.133968 -0.990951 45 31 10
-1.01245 -0.25367 3.52148 0.0700698 -0.155463 -0.985353 45 31 10
-1.00961 -0.259031 3.52219 -0.388277 0.279763 -0.878051 45 31 10
-1.00611 -0.253523 3.52022 0.385683 0.254751 -0.886764 41 28 12
-1.00301 -0.258518 3.51985 0.383575 0.346556 -0.856019 45 30 9
-0.99772 -0.258603 3.52256 0.246859 -0.0183807 -0.968877 43 29 11
-0.991689 -0.25847 3.52263 0.135857 0.348415 -0.927443 40 27 11
-0.986034 -0.258402 3.52219 -0.0397895 0.568982 -0.821387 38 27 12
-0.983196 -0.258761 3.52257 -0.0649244 0.50887 -0.858392 40 27 11
-0.977619 -0.255997 3.52382 -0.125372 0.466758 -0.875454 35 26 14
-0.97157 -0.256044 3.52351 0.0871894 0.0545926 -0.994695 42 28 11
-0.965854 -0.256077 3.52374 -0.107988 0.0408577 -0.993312 45 30 10
-0.968776 -0.260817 3.52499 0.5588 0.374476 -0.739939 44 29 9
-0.958015 -0.259166 3.52367 -0.154174 -0.0568394 -0.986408 45 30 9
-0.952259 -0.259201 3.52398 -0.0609414 -0.0237242 -0.997859 43 29 10
-0.946363 -0.259193 3.52383 0.0994714 -0.146001 -0.984271 30 22 13
-0.940591 -0.259236 3.52495 0.15891 -0.144212 -0.976704 19 18 17
-0.935057 -0.259352 3.5273 0.0966057 -0.102239 -0.990058 17 17 17
-0.694693 -0.26835 3.51581 -0.00521781 0.363617 -0.931534 15 14 13
-0.688652 -0.268257 3.5146 0.212212 0.593026 -0.776716 16 14 13
-0.683794 -0.268594 3.51889 0.0510795 0.221051 -0.973924 17 14 11
-0.683702 -0.268589 3.51895 0.0508539 0.21461 -0.975375 17 14 11
-0.677945 -0.268569 3.51902 0.00677274 0.171165 -0.985219 20 16 10
-0.672215 -0.268546 3.5188 0.00626625 0.15826 -0.987378 25 19 10
-0.666452 -0.268499 3.51829 0.0297249 0.725529 -0.687549 27 21 9
-0.659584 -0.271352 3.51539 -0.089333 0.735609 -0.67149 18 15 11
-0.653033 -0.268375 3.51834 -0.20996 0.732792 -0.64725 28 20 8
-0.649766 -0.268648 3.51701 -0.184354 0.762434 -0.620248 25 18 8
-0.643027 -0.2701 3.51261 -0.261877 0.780794 -0.567258 18 13 9
-0.643591 -0.268621 3.51547 -0.203705 0.767441 -0.607897 22 16 8
-0.637691 -0.26856 3.51373 -0.287911 0.643633 -0.709115 17 13 9
-0.636324 -0.27121 3.51031 -0.262628 0.741797 -0.617061 15 12 11
-0.629595 -0.272763 3.50927 0.583118 0.509521 -0.632742 15 13 13
-0.620532 -0.268995 3.51001 0.534151 0.55672 -0.636196 15 13 12
-0.613045 -0.270902 3.51318 -0.724692 0.301982 -0.619377 14 12 12
-0.606492 -0.270383 3.50904 -0.587497 0.450796 -0.672035 15 13 12
-0.600873 -0.270427 3.50881 -0.144543 0.517237 -0.843548 14 12 11
-0.600688 -0.270463 3.50886 -0.135257 0.528232 -0.838258 14 12 11
-0.600814 -0.270474 3.50872 -0.149164 0.522421 -0.839539 14 12 11
-0.595096 -0.270739 3.51142 0.285608 -0.167968 -0.943512 14 12 11
-0.595128 -0.270759 3.51139 0.285537 -0.172435 -0.942727 14 12 11
-0.589585 -0.271061 3.51452 -0.282991 -0.290461 -0.914084 13 11 11
-0.580393 -0.271834 3.50668 -0.815675 -0.00952297 -0.578431 11 10 12
-0.504669 -0.276354 3.49881 -0.483222 -0.105468 -0.869122 12 11 11
-0.498861 -0.276181 3.49626 -0.208324 -0.0784378 -0.974909 21 20 16
-0.492348 -0.275205 3.49619 -0.123203 -0.072194 -0.989752 33 29 20
-0.471025 -0.275437 3.48256 0.579383 0.250291 -0.775674 34 29 22
-0.463758 -0.278593 3.49197 0.747931 -0.131289 -0.650662 34 26 20
-0.185497 -0.299248 3.60815 -0.639765 0.181974 -0.746717 31 25 27
-0.179949 -0.297763 3.6069 -0.415545 0.107617 -0.903184 27 21 25
-0.173984 -0.298108 3.60789 0.174235 0.111167 -0.978409 14 12 20
-0.167443 -0.298538 3.60681 -0.0126972 0.794867 -0.606651 10 9 17
0.190983 -0.314089 3.59428 -0.103586 0.806659 -0.581868 8 7 15
0.202568 -0.314588 3.59557 -0.906632 0.0758484 -0.415048 12 9 17
0.206962 -0.312574 3.58852 -0.849522 0.100506 -0.517892 28 22 24
0.510732 -0.320839 3.54117 -0.97518 -0.0302824 -0.219334 21 17 21
0.520417 -0.322697 3.54194 -0.976571 -0.0406686 -0.211317 9 7 15
0.520417 -0.322697 3.54194 -0.976571 -0.0406686 -0.211317 9 7 15
-2.12195 -0.27954 4.35896 -0.229494 -0.333313 -0.914459 42 36 39
-2.09992 -0.280545 4.36732 -0.111936 0.134106 -0.984625 43 37 41
-2.09151 -0.280708 4.36863 -0.414614 -0.0552928 -0.908316 42 36 40
-2.08024 -0.280702 4.36342 -0.415944 -0.249161 -0.874591 41 36 40
-2.07112 -0.280984 4.36219 -0.238602 -0.240323 -0.940911 42 37 40
-2.06319 -0.281265 4.36377 -0.245584 -0.134866 -0.959948 43 37 41
-2.0439 -0.282017 4.3598 -0.297641 -0.196585 -0.934218 41 35 38
-2.03312 -0.281386 4.35718 -0.277288 -0.227848 -0.933379 41 36 38
-2.02003 -0.281083 4.34796 -0.325971 -0.277338 -0.903785 42 37 40
-2.01134 -0.28132 4.34766 -0.330481 -0.229057 -0.915595 41 36 38
-1.99077 -0.281907 4.34243 -0.459304 -0.330033 -0.824693 39 34 36
-1.97282 -0.285026 4.35248 -0.205985 0.0568409 -0.976903 40 35 37
-1.97032 -0.283654 4.36866 -0.147016 0.318056 -0.936604 40 35 37
-1.8725 -0.293704 4.37552 -0.448877 -0.397833 -0.800149 46 43 47
-1.60179 -0.254854 3.81658 -0.219058 -0.673284 -0.706188 50 49 55
-1.5576 -0.256585 3.83288 0.0269923 0.799069 -0.600632 47 44 49
-1.49591 -0.292552 4.21424 0.910876 -0.266572 -0.31503 48 46 57
-1.25143 -0.255819 3.68942 -0.380054 0.368578 -0.848356 33 39 55
-1.25143 -0.255819 3.68942 -0.380054 0.368578 -0.848356 33 39 55
-1.25143 -0.255819 3.68942 -0.380054 0.368578 -0.848356 33 39 55
-1.23743 -0.257978 3.6772 -0.541436 0.295407 -0.787135 27 30 44
-1.24368 -0.25677 3.68865 -0.464186 0.591713 -0.659096 30 34 49
-1.2399 -0.25193 3.6803 -0.414264 0.527258 -0.741878 26 30 44
-1.23119 -0.25152 3.67484 -0.271016 0.777484 -0.567511 27 31 45
-1.12808 -0.243269 3.51166 0.798581 -0.0378056 -0.600699 26 36 47
-1.11398 -0.247452 3.51938 -0.656622 -0.107293 -0.746549 39 38 37
-1.10785 -0.247244 3.51437 -0.476627 -0.276556 -0.834472 39 36 31
-1.09525 -0.241774 3.46725 -0.673122 0.0561654 -0.737395 38 35 31
-1.09592 -0.242321 3.47162 -0.640104 0.144205 -0.754634 38 35 31
-1.08468 -0.244109 3.51497 0.418982 -0.118705 -0.900202 28 26 26
-1.08221 -0.249473 3.51705 0.460828 -0.061694 -0.885343 22 21 23
-1.08167 -0.249028 3.51689 0.383325 -0.0755483 -0.920518 22 21 23
-1.0773 -0.249377 3.52163 0.112438 -0.0727904 -0.990989 22 21 23
-1.04281 -0.247327 3.51604 0.415024 -0.0906994 -0.905278 19 20 20
-1.03757 -0.247447 3.51918 0.299518 -0.0313119 -0.953577 24 21 17
-1.03168 -0.24737 3.51995 -0.0327706 -0.171997 -0.984552 44 30 12
-1.02125 -0.248748 3.52103 -0.235934 0.110449 -0.965472 45 30 9
-1.01509 -0.248625 3.52034 0.151396 -0.0322883 -0.987946 45 30 11
-1.00929 -0.248597 3.52074 0.132359 0.00143496 -0.991201 34 25 13
-1.00349 -0.248581 3.52148 0.161963 -0.0629109 -0.984789 20 18 16
-0.997997 -0.248653 3.52334 0.146333 -0.128985 -0.98079 19 18 18
-1.00059 -0.253587 3.52197 0.284635 0.151806 -0.94654 29 22 14
-0.992418 -0.248729 3.5252 0.18479 -0.0892443 -0.978718 19 18 17
-0.994824 -0.253621 3.52313 0.170116 0.284795 -0.943373 23 20 16
-0.989037 -0.253584 3.52447 0.00475007 0.372743 -0.927923 22 19 16
-0.985981 -0.249007 3.52484 -0.0468721 0.518632 -0.853712 19 18 17
-0.983151 -0.25348 3.52536 -0.0386845 0.547791 -0.835721 22 19 16
-0.977538 -0.250801 3.52594 -0.100394 0.475915 -0.873742 20 18 17
-0.96872 -0.251146 3.52362 -0.335609 0.365778 -0.868086 33 25 14
-0.959269 -0.252999 3.52379 -0.243168 -0.1774 -0.953624 45 30 9
-0.955215 -0.254179 3.52374 -0.223367 -0.179679 -0.958031 45 30 9
-0.949407 -0.254168 3.52347 -0.0226455 0.00564583 -0.999728 44 29 8
-0.943368 -0.254123 3.52351 0.0820346 -0.0440576 -0.995655 31 23 12
-0.937795 -0.254187 3.52477 0.131758 -0.0697427 -0.988825 19 17 16
-0.931806 -0.254115 3.52465 -0.105857 -0.0345514 -0.993781 18 17 17
-0.9283 -0.255272 3.51259 -0.579608 0.538983 -0.611189 17 17 17
-0.922175 -0.253605 3.51963 -0.583489 0.535544 -0.610519 17 17 16
-0.922149 -0.253708 3.51879 -0.577054 0.545027 -0.608238 17 17 16
-0.915218 -0.251336 3.51739 0.650805 0.521977 -0.551355 18 17 17
-0.908791 -0.252304 3.52067 0.675039 0.435236 -0.595728 17 17 16
-0.888361 -0.256239 3.52276 0.634924 0.507174 -0.582791 17 17 17
-0.883132 -0.253088 3.51679 0.652074 0.468553 -0.596035 17 16 16
-0.877626 -0.255081 3.5165 0.66329 0.442861 -0.603258 17 17 17
-0.710383 -0.259989 3.52274 0.389539 -0.69132 -0.608553 16 15 14
-0.704028 -0.263694 3.51931 0.606006 -0.473052 -0.639514 16 15 14
-0.692681 -0.263858 3.52155 -0.0188567 -0.145137 -0.989232 18 15 13
-0.692656 -0.263854 3.52157 -0.0221092 -0.14556 -0.989102 18 15 13
-0.692729 -0.263874 3.52156 -0.0175389 -0.141274 -0.989815 18 15 13
-0.698318 -0.263809 3.5212 0.0872857 -0.123531 -0.988495 15 14 13
-0.686878 -0.263808 3.52117 0.0507445 0.0195306 -0.998521 26 20 11
-0.686959 -0.263833 3.52123 0.0598324 0.0733072 -0.995513 26 19 11
-0.681197 -0.263805 3.52124 -0.000410318 0.159326 -0.987226 35 24 8
-0.681118 -0.263797 3.52132 0.00757228 0.181453 -0.98337 35 24 8
-0.675412 -0.263795 3.52135 0.0344838 0.229458 -0.972707 39 26 7
-0.675502 -0.263806 3.52124 0.0388388 0.229067 -0.972635 39 26 7
-0.669597 -0.263763 3.52118 0.0250396 0.290566 -0.956527 41 27 6
-0.669677 -0.263768 3.52103 0.0220607 0.288774 -0.957143 41 27 6
-0.663964 -0.2639 3.52272 0.0535961 0.500713 -0.863952 41 27 6
-0.663613 -0.263714 3.52075 -0.0648007 0.117129 -0.991 42 27 6
-0.658017 -0.263771 3.52106 -0.227971 0.210052 -0.950741 41 26 5
-0.652518 -0.263871 3.52088 -0.162496 0.443137 -0.881603 41 26 5
-0.646294 -0.26382 3.51915 -0.178232 0.413595 -0.892845 41 26 6
-0.640245 -0.263835 3.51811 -0.236014 0.41937 -0.876599 37 24 6
-0.634209 -0.263772 3.51576 -0.165404 0.263696 -0.950319 28 19 7
-0.628475 -0.263761 3.51465 -0.199563 0.24901 -0.947718 19 14 9
-0.622914 -0.263842 3.5144 -0.124069 0.269897 -0.954863 15 12 10
-0.615606 -0.265801 3.5132 -0.267546 0.082873 -0.959975 14 12 11
-0.609734 -0.265796 3.51369 0.186953 -0.0466116 -0.981262 18 15 11
-0.604124 -0.265855 3.51364 -0.127827 0.0175177 -0.991642 25 18 10
-0.598328 -0.26586 3.51309 -0.0962242 -0.155784 -0.983093 25 18 9
-0.598496 -0.265901 3.51344 -0.0894342 -0.206715 -0.974305 25 18 9
-0.592138 -0.265719 3.51061 0.0436304 -0.0183394 -0.998879 23 17 9
-0.586295 -0.265667 3.51025 -0.0706783 0.0887006 -0.993548 17 13 9
-0.580825 -0.265776 3.50812 -0.558874 -0.0277378 -0.828789 13 11 11
-0.509584 -0.264998 3.48986 0.211232 -0.346483 -0.913964 12 12 12
-0.504712 -0.265939 3.49795 -0.452128 -0.0877234 -0.887629 12 12 12
-0.506987 -0.270842 3.49512 -0.174369 -0.127495 -0.976392 12 11 12
-0.499316 -0.265912 3.49467 -0.402804 -0.0622271 -0.913169 23 21 17
-0.501717 -0.271193 3.49627 -0.113189 -0.0241121 -0.993281 14 14 13
-0.495204 -0.270134 3.49543 -0.136354 -0.0576194 -0.988983 31 28 20
-0.496436 -0.271107 3.49375 -0.569672 -0.103874 -0.815282 29 27 20
-0.488779 -0.267465 3.50049 0.608383 0.182081 -0.772474 32 30 21
-0.488779 -0.267465 3.50049 0.608383 0.182081 -0.772474 32 30 21
-0.468194 -0.269214 3.48361 0.593632 0.00248724 -0.804733 35 29 22
-0.472718 -0.26622 3.48683 0.700417 0.0944065 -0.707463 36 31 22
-0.462434 -0.267535 3.48848 0.723889 -0.225498 -0.652024 32 24 21
-0.189495 -0.293966 3.60323 -0.304253 0.125906 -0.944234 33 26 28
-0.182559 -0.292378 3.60841 -0.50954 0.103196 -0.854236 32 25 28
-0.176813 -0.292482 3.60691 -0.252164 0.0882833 -0.963649 20 17 22
-0.170542 -0.292829 3.60905 -0.305386 0.151788 -0.940053 12 11 19
-0.164466 -0.292941 3.60795 -0.365166 0.844544 -0.391662 9 8 15
0.203544 -0.306531 3.59674 -0.810261 0.223056 -0.541963 12 10 17
0.208356 -0.305112 3.59047 -0.848161 0.150992 -0.507764 29 22 25
0.506194 -0.313297 3.54607 -0.974379 0.0619945 -0.216199 27 22 23
-2.13704 -0.265878 4.3385 -0.149972 0.572957 -0.805747 43 37 39
-2.13778 -0.270452 4.35961 -0.351432 0.556332 -0.752987 41 34 36
-2.13238 -0.271181 4.3651 -0.433059 -0.245893 -0.867177 38 31 35
-2.11434 -0.271041 4.36393 -0.258728 -0.35036 -0.900171 38 31 34
-2.10566 -0.271281 4.36458 -0.276738 -0.344686 -0.896999 37 31 34
-2.09822 -0.271675 4.36737 -0.329698 -0.380314 -0.864095 38 32 34
-2.08734 -0.270178 4.36773 -0.330652 -0.218997 -0.917992 37 31 33
-2.08148 -0.270814 4.36889 -0.293938 -0.167305 -0.941068 37 31 33
-2.06986 -0.272569 4.36488 -0.246262 -0.253521 -0.935458 38 32 33
-2.06266 -0.272882 4.36911 -0.241328 -0.202535 -0.949073 37 32 33
-2.051 -0.272692 4.36361 -0.328579 -0.103487 -0.93879 39 33 34
-2.01663 -0.272244 4.3471 -0.445678 -0.35073 -0.823626 38 33 33
-2.01183 -0.273091 4.35383 -0.46113 -0.320847 -0.827294 38 33 33
-1.91294 -0.277871 4.36225 -0.451747 -0.385276 -0.804666 44 40 44
-1.87684 -0.282172 4.35069 -0.412498 -0.461862 -0.785193 45 41 46
-1.87228 -0.283128 4.35879 -0.391763 -0.493688 -0.776398 45 42 48
-1.8565 -0.283697 4.39828 -0.464939 -0.0493663 -0.883965 45 42 46
-1.55778 -0.2474 3.82415 -0.217992 0.772453 -0.596486 48 46 52
-1.23752 -0.249137 3.67209 -0.284105 0.711055 -0.643184 27 32 46
-1.12431 -0.238983 3.51704 0.806006 0.0552951 -0.589319 36 46 55
-1.11172 -0.241736 3.51552 -0.608112 -0.280747 -0.74255 38 36 34
-1.10857 -0.238293 3.51624 -0.212619 -0.103911 -0.971594 37 36 32
-1.10796 -0.237104 3.51814 0.0023469 -0.167593 -0.985854 37 35 32
-1.10577 -0.241235 3.51247 0.131443 -0.26608 -0.954947 38 35 31
-1.09274 -0.233287 3.46249 -0.672319 0.0926992 -0.734435 33 32 30
-1.09262 -0.23875 3.51339 -0.124083 -0.151102 -0.9807 37 34 30
-1.08754 -0.238903 3.51419 -0.214105 -0.13429 -0.967536 35 33 30
-1.04563 -0.242261 3.51514 0.242576 -0.0339305 -0.969539 19 19 20
-1.04022 -0.242334 3.51771 0.27044 -0.0963627 -0.957902 22 20 18
-1.03469 -0.242351 3.51982 0.228762 -0.0638047 -0.971389 42 29 13
-1.02429 -0.243869 3.52027 -0.057778 -0.195704 -0.978959 45 31 10
-1.01748 -0.243497 3.51814 0.451516 0.0794782 -0.888716 44 30 10
-1.01225 -0.243642 3.52034 0.191002 -0.0231338 -0.981317 30 23 14
-1.00657 -0.243624 3.52166 0.266406 0.0114154 -0.963793 19 19 17
-1.0013 -0.243755 3.52432 0.290632 -0.173925 -0.940895 18 17 17
-0.994882 -0.243553 3.52276 0.691419 -0.45274 -0.562998 19 18 18
-0.983238 -0.247931 3.53031 -0.078008 0.783656 -0.616277 19 18 17
-0.982637 -0.244115 3.52684 0.693244 0.437455 -0.572753 18 18 18
-0.982749 -0.243881 3.52869 0.634994 0.545705 -0.546799 18 18 18
-0.973932 -0.246484 3.52456 -0.0817527 0.0278473 -0.996264 18 17 18
-0.964663 -0.242892 3.52307 -0.157044 -0.00999367 -0.987541 24 20 16
-0.96188 -0.247899 3.52293 -0.15582 -0.0399397 -0.986978 43 29 11
-0.961541 -0.247847 3.52318 -0.150267 -0.0779691 -0.985566 43 29 11
-0.955489 -0.247794 3.52306 -0.234676 -0.17119 -0.956881 44 30 9
-0.946094 -0.249073 3.52249 0.153365 -0.00662792 -0.988147 43 29 9
-0.940481 -0.249122 3.52358 0.0374599 0.0162253 -0.999166 31 23 12
-0.940452 -0.24909 3.52359 0.0439867 0.010937 -0.998972 30 23 12
-0.934518 -0.249043 3.52339 -0.167959 0.108155 -0.979843 18 17 17
-0.93475 -0.249122 3.5238 -0.100694 0.0741368 -0.992151 19 17 17
-0.931857 -0.244159 3.5239 0.0160684 -0.0356791 -0.999234 20 18 15
-0.931713 -0.244156 3.52385 0.019096 -0.03488 -0.999209 20 18 16
-0.926927 -0.248403 3.51424 -0.533741 0.599112 -0.596812 17 17 17
-0.926939 -0.248407 3.51429 -0.534341 0.598669 -0.59672 17 17 17
-0.926939 -0.248407 3.51429 -0.534341 0.598669 -0.59672 17 17 17
-0.922331 -0.249509 3.5159 -0.415048 0.71915 -0.557277 17 17 17
-0.903632 -0.24835 3.51487 -0.0294286 0.796542 -0.603866 16 16 17
-0.897553 -0.248316 3.51428 -0.190469 0.845352 -0.499102 16 16 16
-0.891093 -0.249077 3.51749 0.1734 0.784935 -0.59482 17 16 17
-0.890877 -0.249102 3.51805 0.159262 0.784618 -0.599175 17 16 17
-0.885373 -0.246185 3.51991 -0.0640364 0.688974 -0.721951 19 18 15
-0.884816 -0.246161 3.51973 -0.067389 0.703665 -0.707329 19 18 15
-0.8781 -0.248725 3.51889 0.459151 0.527555 -0.714749 17 16 16
-0.870611 -0.248206 3.52185 0.610411 0.402542 -0.682172 17 16 15
-0.849519 -0.249347 3.52584 -0.692688 0.358709 -0.625709 16 16 16
-0.841978 -0.248775 3.51546 -0.547601 0.608146 -0.57471 16 16 16
-0.82359 -0.248829 3.52164 -0.0147508 0.336987 -0.941394 17 16 15
-0.815723 -0.249697 3.52036 0.160519 0.497012 -0.852768 17 16 15
-0.809286 -0.249686 3.5207 0.667973 0.466672 -0.579681 17 16 15
-0.79471 -0.250065 3.52384 0.710999 0.400846 -0.577757 17 15 15
-0.777904 -0.251428 3.52593 -0.557669 0.615646 -0.556763 16 15 15
-0.747127 -0.252707 3.51841 -0.68276 0.441772 -0.581959 16 15 15
-0.747127 -0.252707 3.51841 -0.68276 0.441772 -0.581959 16 15 15
-0.747127 -0.252707 3.51841 -0.68276 0.441772 -0.581959 16 15 15
-0.714021 -0.254944 3.5276 0.361584 -0.293383 -0.884976 16 14 13
-0.709071 -0.254176 3.5232 0.00687629 -0.100356 -0.994928 15 15 13
-0.703947 -0.253866 3.52118 -0.0625768 0.152769 -0.986279 19 15 12
-0.69831 -0.253889 3.5211 0.0207092 0.0157277 -0.999662 33 23 9
-0.69544 -0.258845 3.52104 -0.0400408 0.0161079 -0.999068 25 19 11
-0.689724 -0.258871 3.52136 0.0239082 0.0757574 -0.99684 38 25 8
-0.689792 -0.258887 3.52132 0.0248168 0.0741899 -0.996935 38 25 8
-0.683959 -0.258881 3.52137 -0.00343637 0.125799 -0.99205 42 27 5
-0.683766 -0.258807 3.5206 -0.125529 -0.353984 -0.926789 42 27 5
-0.678062 -0.258753 3.51982 0.0532268 -0.497668 -0.865733 43 27 5
-0.677951 -0.258734 3.51976 -0.146787 -0.511419 -0.846702 43 27 5
-0.672146 -0.258656 3.51927 0.330902 -0.520945 -0.786842 43 27 5
-0.666258 -0.258539 3.51856 -0.720917 -0.307268 -0.62118 43 27 4
-0.66619 -0.258537 3.51881 -0.720486 -0.308893 -0.620874 43 27 4
-0.657373 -0.260624 3.51874 -0.24172 -0.317677 -0.916871 42 27 5
-0.660344 -0.258555 3.51793 -0.693939 -0.292698 -0.657857 43 27 4
-0.648316 -0.258525 3.51678 -0.493964 -0.383121 -0.780524 44 27 4
-0.642337 -0.258588 3.51644 -0.173547 -0.127096 -0.97659 43 27 4
-0.630926 -0.258774 3.51479 -0.119725 0.00801168 -0.992775 40 25 6
-0.636234 -0.258652 3.51542 -0.137204 -0.0184832 -0.99037 43 27 5
-0.625312 -0.258829 3.51477 -0.130484 -0.026287 -0.991102 27 18 8
-0.625331 -0.258865 3.51474 -0.129541 -0.0253058 -0.991251 27 18 8
-0.619717 -0.258918 3.51509 -0.141797 -0.120113 -0.982581 16 13 9
-0.619731 -0.258951 3.51502 -0.142164 -0.112485 -0.983431 16 13 9
-0.612831 -0.260866 3.51328 -0.121814 -0.0368089 -0.99187 16 13 10
-0.606991 -0.260831 3.51332 -0.0958636 -0.0527996 -0.993993 35 24 9
-0.601315 -0.260894 3.51351 -0.0891532 -0.0824723 -0.992598 40 26 6
-0.595405 -0.260787 3.51171 -0.0287711 -0.22303 -0.974387 41 26 5
-0.589275 -0.260724 3.51079 -0.270318 -0.0774998 -0.959647 35 24 6
-0.583619 -0.260747 3.50946 -0.303238 0.0160075 -0.95278 15 12 10
-0.57828 -0.260971 3.51036 -0.512683 0.100458 -0.852681 13 11 11
-0.507675 -0.260579 3.4979 -0.346911 -0.0978803 -0.932777 12 12 12
-0.502152 -0.26057 3.49545 -0.48185 -0.0654303 -0.873808 15 14 13
-0.498159 -0.265097 3.4953 0.018535 -0.0978702 -0.995027 26 24 18
-0.49089 -0.264751 3.49975 0.355122 -0.267551 -0.895715 32 30 21
-0.187051 -0.287756 3.60511 -0.526633 0.154595 -0.835918 33 26 29
-0.173735 -0.287171 3.60646 -0.254171 0.076989 -0.96409 14 13 20
-0.167329 -0.287642 3.61003 -0.759291 0.0360082 -0.649755 12 11 18
0.200767 -0.301781 3.60087 -0.852175 0.111513 -0.511236 9 7 15
0.205702 -0.299255 3.59731 -0.896416 0.104413 -0.43074 17 14 19
0.504561 -0.308422 3.55335 -0.184493 0.908987 -0.373771 25 21 23
0.509954 -0.309185 3.54284 -0.977571 0.0590023 -0.202174 21 17 20
0.51848 -0.307376 3.53914 -0.645944 0.726653 -0.233949 8 7 15
-2.1363 -0.25976 4.35978 -0.311075 0.59623 -0.740096 39 33 35
-2.13606 -0.259973 4.35965 -0.282253 0.623257 -0.729303 39 33 35
-2.1368 -0.260138 4.36112 -0.288836 0.617384 -0.731718 39 33 35
-2.10205 -0.263817 4.37909 -0.40735 0.49882 -0.765013 37 31 33
-2.06945 -0.264187 4.36892 -0.427974 -0.374418 -0.822587 38 32 33
-2.03171 -0.264376 4.36511 -0.469191 -0.296018 -0.832006 38 31 31
-2.02074 -0.267017 4.36152 -0.466096 0.409621 -0.784197 38 31 31
-1.92094 -0.267519 4.36207 -0.451307 -0.385315 -0.804894 39 36 41
-1.91074 -0.267666 4.35803 -0.399703 -0.475699 -0.783548 42 38 42
-1.90048 -0.267817 4.35459 -0.357161 -0.535768 -0.765107 42 37 41
-1.88508 -0.274583 4.34443 -0.31267 -0.587324 -0.746517 45 40 45
-1.88162 -0.272635 4.35259 -0.294734 -0.607872 -0.737309 45 40 46
-1.84984 -0.272326 4.38521 -0.461883 -0.0166472 -0.886784 43 41 46
-1.25072 -0.239755 3.6821 -0.565993 0.245347 -0.787056 31 36 52
-1.25161 -0.242254 3.68594 -0.419299 0.0238595 -0.907535 32 37 53
-1.25908 -0.239359 3.69072 -0.634432 0.124887 -0.762823 33 42 60
-1.25143 -0.24057 3.68802 -0.20924 0.582377 -0.785529 31 36 52
-1.12782 -0.233495 3.52017 -0.218319 -0.162223 -0.9623 29 40 49
-1.12039 -0.234439 3.52282 0.171663 0.118111 -0.97805 53 59 64
-1.11478 -0.234322 3.52212 0.0242225 0.0473152 -0.998586 38 37 36
-1.08412 -0.233554 3.51347 -0.00450525 -0.164747 -0.986326 26 25 25
-1.04892 -0.237157 3.5174 -0.27889 0.402304 -0.871993 19 19 20
-1.04326 -0.237092 3.51856 0.115208 0.0230772 -0.993073 21 19 19
-1.03765 -0.237245 3.5194 0.341621 0.0900324 -0.935516 36 27 15
-1.032 -0.237206 3.52074 0.145429 0.043441 -0.988415 45 30 10
-1.0205 -0.23827 3.51753 0.273011 -0.103425 -0.956435 44 30 10
-1.02655 -0.237709 3.52021 -0.346987 0.623513 -0.700594 45 30 10
-1.01481 -0.238201 3.51935 0.202835 -0.102565 -0.973827 30 23 14
-1.00935 -0.238574 3.52079 0.257707 -0.0191966 -0.966032 19 18 18
-1.00564 -0.234278 3.51316 -0.648125 0.289408 -0.704399 18 17 18
-0.998774 -0.237951 3.52601 0.743666 -0.461114 -0.484081 18 18 17
-0.974657 -0.238278 3.52926 -0.691089 -0.147606 -0.707537 18 17 18
-0.967783 -0.237928 3.52329 -0.205929 -0.0220442 -0.978319 18 17 18
-0.961725 -0.237847 3.52327 0.183625 -0.104195 -0.977459 25 20 16
-0.958679 -0.242829 3.52331 0.0937705 -0.144486 -0.985054 43 29 11
-0.956283 -0.237699 3.52502 0.260355 -0.0955478 -0.960774 43 29 11
-0.952612 -0.242773 3.52313 -0.164547 -0.033609 -0.985796 45 29 9
-0.948541 -0.237423 3.52047 0.464323 0.0187379 -0.885468 47 30 9
-0.940346 -0.239097 3.5231 0.0326207 -0.0727199 -0.996819 41 29 10
-0.934778 -0.239169 3.52382 -0.0415223 -0.0412965 -0.998284 24 19 11
-0.934644 -0.239171 3.52382 -0.0516487 -0.0500392 -0.997411 24 18 11
-0.92884 -0.239119 3.52324 -0.0497985 -0.0314379 -0.998264 34 25 14
-0.928747 -0.239134 3.52342 -0.0337352 -0.0288739 -0.999014 34 25 14
-0.922919 -0.23912 3.52305 0.056952 0.0791503 -0.995234 40 28 10
-0.917136 -0.23909 3.52296 -0.00356799 0.184945 -0.982742 40 27 10
-0.911497 -0.239115 3.52327 0.0971326 0.182419 -0.978411 33 23 11
-0.905837 -0.23912 3.52392 0.148755 0.166854 -0.974696 27 21 12
-0.90319 -0.244107 3.52487 -0.0242229 -0.192071 -0.981082 19 17 15
-0.896716 -0.243809 3.52185 -0.0239168 0.406248 -0.91345 23 19 14
-0.89109 -0.243818 3.52178 -0.083944 0.631014 -0.771216 25 21 14
-0.890655 -0.243806 3.52165 -0.0779843 0.658509 -0.748521 25 21 14
-0.879218 -0.243332 3.52207 0.100312 0.145165 -0.984309 23 18 14
-0.873666 -0.243262 3.52216 0.00743659 0.22739 -0.973775 19 17 15
-0.868108 -0.243159 3.52149 -0.0762194 0.238155 -0.968232 17 16 16
-0.84423 -0.243638 3.52121 -0.4073 0.436937 -0.801993 17 16 15
-0.838751 -0.24371 3.52309 -0.000770479 0.0470134 -0.998894 17 16 15
-0.832752 -0.243722 3.52325 -0.174415 -0.109233 -0.978595 17 16 14
-0.832679 -0.243568 3.52121 -0.0281735 0.356666 -0.933807 18 16 14
-0.827165 -0.243832 3.52364 -0.213388 -0.168365 -0.962351 19 17 14
-0.826878 -0.24379 3.52383 -0.240284 -0.21221 -0.947222 20 17 14
-0.82132 -0.243798 3.52316 -0.0961282 0.123066 -0.987732 21 18 13
-0.815508 -0.243827 3.52373 0.165631 -0.119891 -0.978873 21 19 14
-0.812319 -0.244584 3.5211 0.0648134 0.455195 -0.88803 19 17 14
-0.805831 -0.244551 3.52113 -0.176886 0.449574 -0.875554 18 16 14
-0.800601 -0.244887 3.52432 -0.362754 -0.186295 -0.913074 18 16 14
-0.793424 -0.244944 3.52289 0.622269 0.426649 -0.656317 17 16 15
-0.781785 -0.248098 3.51806 -0.641146 0.453211 -0.6193 17 17 15
-0.776107 -0.245141 3.519 -0.0620079 0.534043 -0.843181 17 16 14
-0.76714 -0.246108 3.51294 -0.0343008 0.796141 -0.604138 16 16 15
-0.761753 -0.245868 3.51226 -0.13456 0.785455 -0.604114 16 15 14
-0.760861 -0.248601 3.52352 -0.204841 0.729427 -0.652669 15 15 15
-0.760861 -0.248601 3.52352 -0.204841 0.729427 -0.652669 15 15 15
-0.760861 -0.248601 3.52352 -0.204841 0.729427 -0.652669 15 15 15
-0.752217 -0.246336 3.5121 -0.193041 0.710026 -0.677199 16 15 14
-0.745425 -0.246711 3.51381 -0.277055 0.731411 -0.62312 16 15 15
-0.73707 -0.24662 3.51233 0.560472 0.559487 -0.610611 16 15 14
-0.721559 -0.248146 3.52376 0.674992 0.421973 -0.605247 17 15 14
-0.721559 -0.248146 3.52376 0.674992 0.421973 -0.605247 17 15 14
-0.721559 -0.248146 3.52376 0.674992 0.421973 -0.605247 17 15 14
-0.712292 -0.249068 3.52299 0.204442 -0.135978 -0.969388 16 14 13
-0.715446 -0.25041 3.53088 0.281663 -0.246965 -0.927186 16 15 13
-0.706435 -0.249066 3.52223 0.0103868 -0.0387448 -0.999195 21 17 12
-0.700413 -0.249141 3.52199 -0.0636389 -0.033045 -0.997426 39 26 8
-0.692601 -0.253898 3.52134 -0.0122586 -0.0166228 -0.999787 42 27 7
-0.695388 -0.248894 3.52079 -0.0912687 -0.0452139 -0.994799 43 28 6
-0.686714 -0.253813 3.5202 0.0603655 -0.212806 -0.975228 43 28 6
-0.68952 -0.248802 3.51967 0.10008 -0.209208 -0.972736 43 28 6
-0.681878 -0.253612 3.5197 0.215095 -0.407593 -0.887469 42 27 6
-0.678193 -0.252645 3.51785 -0.341589 0.0768015 -0.936706 42 27 5
-0.670805 -0.250663 3.51615 0.0732116 0.1602 -0.984366 40 25 7
-0.661385 -0.251188 3.51647 -0.0100438 0.0631044 -0.997956 37 24 6
-0.652524 -0.252857 3.51645 -0.171498 -0.0359645 -0.984528 42 26 5
-0.647045 -0.253193 3.51686 -0.455676 -0.301695 -0.83746 42 27 5
-0.639686 -0.253615 3.51656 -0.292871 -0.199304 -0.93515 42 27 4
-0.633698 -0.253767 3.51457 0.0994806 -0.124098 -0.987271 43 27 4
-0.62812 -0.253846 3.51487 0.0222792 -0.101054 -0.994631 39 25 5
-0.622553 -0.253904 3.51499 0.0222289 -0.0177941 -0.999595 22 16 8
-0.622572 -0.253942 3.51498 0.0283275 -0.0186323 -0.999425 22 16 8
-0.615778 -0.255876 3.51349 -0.234955 -0.0110343 -0.971944 15 12 10
-0.612785 -0.250774 3.51277 -0.146609 -0.0737133 -0.986444 15 13 10
-0.609846 -0.255768 3.51262 0.0771544 -0.0252395 -0.9967 24 18 10
-0.604086 -0.25579 3.51408 -0.164944 -0.111014 -0.980035 41 26 5
-0.598736 -0.256139 3.51025 0.0236509 -0.0489353 -0.998522 42 26 4
-0.592466 -0.255716 3.51106 -0.412478 -0.10451 -0.904953 42 26 5
-0.586518 -0.255607 3.50934 -0.468572 -0.101774 -0.877543 23 15 6
-0.580705 -0.255589 3.50746 -0.56141 -0.0227275 -0.827226 13 12 11
-0.505022 -0.255345 3.49571 -0.390247 -0.0703901 -0.918016 12 12 12
-0.501823 -0.253856 3.49482 -0.466388 -0.0122971 -0.884495 17 16 14
-0.499065 -0.258753 3.4935 -0.561956 -0.0906149 -0.822188 26 24 18
-0.493689 -0.259076 3.4961 0.290051 -0.0770688 -0.953903 32 29 21
-0.48778 -0.259358 3.50133 0.277893 -0.714664 -0.641897 35 31 22
-0.489951 -0.26021 3.50094 0.563901 0.105399 -0.819089 32 29 20
-0.489951 -0.26021 3.50094 0.563901 0.105399 -0.819089 32 29 20
-0.461728 -0.265445 3.54346 -0.128008 -0.0786487 -0.98865 35 29 22
-0.456781 -0.258728 3.52951 0.509168 0.00972161 -0.860612 32 25 20
-0.182397 -0.28181 3.60926 -0.691421 0.0292835 -0.721859 31 24 27
-0.176652 -0.281814 3.60705 -0.361162 0.123405 -0.924301 20 17 22
-0.170499 -0.282027 3.60787 -0.514156 -0.0733556 -0.854554 12 11 18
-0.164381 -0.27899 3.61141 -0.363098 0.0185334 -0.931567 11 10 17
-0.158339 -0.279107 3.61003 -0.211798 -0.741808 -0.636288 10 8 16
0.20386 -0.295146 3.60644 -0.959216 0.0657765 -0.274916 9 8 15
0.209296 -0.295627 3.59146 -0.948211 0.0879084 -0.305235 28 23 24
0.508594 -0.304373 3.55085 -0.977837 0.0583539 -0.201071 27 22 23
0.515979 -0.305602 3.54158 -0.755476 0.384093 -0.530781 10 8 16
0.51565 -0.300374 3.53134 -0.471735 0.803283 -0.363596 7 7 14
-2.16824 -0.247386 4.37042 -0.406784 0.473136 -0.781453 41 35 39
-2.16614 -0.253588 4.38472 -0.405966 0.479876 -0.77776 43 36 39
-2.10502 -0.250001 4.36603 -0.49651 -0.155859 -0.853924 38 31 33
-2.09991 -0.250911 4.37565 -0.37448 -0.405295 -0.833967 40 33 34
-2.06864 -0.252706 4.35162 -0.140619 0.287104 -0.947522 36 30 31
