ply
format ascii 1.0
element vertex 723
property float x
property float y
property float z
property float nx
property float ny
property float nz
property uchar diffuse_red
property uchar diffuse_green
property uchar diffuse_blue
end_header
-2.54553 -1.0602 7.71072 -0.679034 -0.0960905 -0.727791 46 42 47
-2.29474 -1.0559 7.69433 0.856516 0.182132 -0.482916 50 43 46
-2.29474 -1.0559 7.69433 0.856516 0.182132 -0.482916 50 43 46
-2.28148 -1.05382 7.67132 0.750972 0.154984 -0.641889 50 41 45
-2.27094 -1.06681 7.69811 0.373153 0.293907 -0.879986 44 39 43
-2.25823 -1.06722 7.69585 -0.383467 0.310554 -0.869775 33 32 39
-2.25803 -1.0644 7.69393 0.420478 0.215896 -0.881242 33 32 39
-2.24797 -1.05953 7.70818 0.126092 0.274222 -0.953364 29 30 37
-1.44282 -1.07388 7.68867 -0.556542 0.269065 -0.786044 27 24 30
-1.42745 -1.07043 7.67755 -0.126723 0.362482 -0.923335 40 33 36
-0.777677 -1.08018 7.64515 -0.897898 0.0976999 -0.429225 24 20 27
-4.91261 -1.45781 10.0422 -0.450504 -0.288793 -0.844775 148 153 160
-4.89437 -1.45846 10.048 -0.427185 -0.334819 -0.839887 148 153 159
-4.89152 -1.45799 10.0407 -0.460422 -0.272422 -0.844866 148 153 159
-4.89449 -1.45848 10.0483 -0.429229 -0.331326 -0.840229 148 153 159
-4.84335 -1.44995 10.0026 -0.450783 -0.296451 -0.841969 147 152 156
-4.82707 -1.45426 10.011 -0.429658 -0.337578 -0.837517 148 152 155
-4.83234 -1.44964 9.99441 0.0575961 -0.0479647 -0.997187 148 152 156
-4.81499 -1.45092 10.0121 0.438341 -0.313744 -0.842272 150 153 154
-4.79495 -1.45152 10.0262 0.417044 -0.366892 -0.831544 151 154 153
-4.79881 -1.46573 10.0393 0.809306 -0.379512 -0.448324 151 153 154
-4.75416 -1.45347 10.0145 -0.0304421 -0.106518 -0.993845 148 151 151
-4.74178 -1.45044 10.0147 -0.265055 -0.0515425 -0.962855 145 149 149
-4.72885 -1.45176 10.0072 0.0930916 -0.18038 -0.979182 148 152 151
-4.72609 -1.45342 10.0103 0.132287 -0.324044 -0.936748 147 152 150
-4.69922 -1.44934 9.99832 0.161761 -0.395342 -0.904178 149 154 151
-4.67933 -1.44791 10.0041 0.107865 -0.690763 -0.71499 147 152 149
-4.65133 -1.45297 10.032 -0.0397857 -0.164806 -0.985523 148 152 149
-4.6015 -1.45164 10.0059 -0.160823 0.304515 -0.938833 150 152 151
-4.62896 -1.45267 10.0258 -0.0739012 0.206319 -0.97569 147 152 149
-4.5798 -1.45153 10.0021 -0.141691 0.292149 -0.945819 149 152 151
-4.55737 -1.45109 9.99699 -0.121785 0.313002 -0.941912 149 152 150
-4.54493 -1.45397 10.0137 0.0569124 0.173642 -0.983163 148 150 151
-4.52604 -1.45423 10.0162 0.051181 0.300517 -0.952402 147 149 149
-4.49631 -1.45017 9.99537 -0.26263 0.238314 -0.935004 141 145 145
-4.52471 -1.47316 10.0388 0.8208 -0.33377 -0.463557 153 153 153
-4.47269 -1.44948 9.9855 -0.138432 0.344202 -0.928635 141 146 147
-4.43297 -1.45208 9.98135 -0.0692266 0.399556 -0.914091 143 147 148
-4.41302 -1.45429 10.0018 -0.372524 0.641165 -0.67092 141 145 146
-4.34322 -1.44011 9.92835 -0.146481 0.84231 -0.518707 142 147 148
-4.3157 -1.44483 9.91185 -0.460778 0.622748 -0.632351 145 149 150
-4.29376 -1.44904 9.89946 -0.470275 0.611226 -0.636588 147 152 153
-4.27692 -1.44135 9.93868 0.347565 0.599151 -0.721261 143 147 147
-4.25909 -1.45366 9.93604 0.815536 0.505853 -0.281094 146 151 153
-4.15983 -1.45683 9.94993 -0.102277 0.23318 -0.96704 146 149 150
-4.13227 -1.45573 9.92652 -0.502701 0.581171 -0.639947 145 149 149
-4.09421 -1.44584 9.92286 -0.252729 0.365924 -0.895672 147 149 147
-4.07555 -1.44714 9.92378 -0.0527236 0.636349 -0.769597 146 150 148
-4.02281 -1.44754 9.92714 -0.099449 -0.176152 -0.979327 144 146 143
-4.00149 -1.44644 9.92279 -0.0849422 -0.157879 -0.983798 142 144 143
-3.9851 -1.448 9.93928 0.0783143 0.188217 -0.979 143 146 144
-3.95766 -1.44631 9.92484 0.0674566 0.722706 -0.687856 144 148 148
-3.9459 -1.46036 9.92713 -0.54876 -0.252225 -0.797023 151 155 158
-3.88148 -1.44812 9.86285 -0.477989 0.643413 -0.597952 138 140 136
-3.82613 -1.45112 9.89705 -0.0520705 0.876053 -0.479395 140 145 147
-3.79926 -1.43731 9.87332 -0.0511823 0.880412 -0.471439 136 139 142
-3.73987 -1.43808 9.87796 0.0321548 -0.175558 -0.983944 134 140 139
-3.64614 -1.45033 9.89174 0.00415602 0.364737 -0.931101 147 151 152
-3.62707 -1.45047 9.89337 -0.0896987 0.400818 -0.911756 142 147 146
-3.62717 -1.45057 9.89352 -0.0891152 0.40696 -0.909088 142 147 147
-3.60935 -1.45091 9.89545 -0.166839 0.16992 -0.971232 142 144 141
-3.58107 -1.45596 9.88927 -0.109142 0.191083 -0.975487 141 144 145
-3.5976 -1.45475 9.88494 0.124848 0.427962 -0.895132 140 142 140
-3.53202 -1.43908 9.85924 -0.0787828 -0.3814 -0.921047 139 140 137
-3.49774 -1.45567 9.88653 0.0175074 -0.0655163 -0.997698 148 151 156
-3.49746 -1.4542 9.87903 0.00876487 0.0165934 -0.999824 148 152 156
-3.47676 -1.45381 9.87337 -0.121917 -0.101877 -0.987298 145 148 149
-2.66443 -1.041 7.70339 -0.516115 0.455794 -0.725174 55 53 59
-2.63525 -1.02588 7.59216 -0.216581 0.825552 -0.52111 52 51 56
-2.54974 -1.04423 7.71731 -0.692536 -0.0371305 -0.720427 45 41 46
-2.53925 -1.05244 7.71291 -0.652708 0.00888734 -0.757558 48 43 47
-2.52824 -1.0449 7.69207 -0.541806 -1.02855e-005 -0.840504 50 44 49
-2.53151 -1.04661 7.71574 -0.554479 0.0424369 -0.831115 48 43 48
-2.28178 -1.04292 7.68704 -0.140625 0.0444786 -0.989063 47 41 43
-2.26574 -1.05391 7.69729 0.064551 0.32606 -0.943143 40 37 43
-2.26227 -1.05699 7.7047 0.45725 0.215723 -0.862778 37 35 41
-2.24931 -1.05384 7.69875 0.619042 0.161464 -0.76858 30 30 38
-1.46037 -1.06095 7.68248 -0.0689804 0.365848 -0.928115 21 19 28
-1.44815 -1.06306 7.69263 -0.222183 0.33888 -0.914218 22 20 28
-1.43243 -1.05996 7.6836 -0.265109 0.356549 -0.895874 38 32 34
-1.41959 -1.05929 7.68678 0.411222 0.281867 -0.866861 40 34 36
-0.77544 -1.06352 7.64981 -0.897531 0.111769 -0.426552 21 18 25
-0.760559 -1.06987 7.63016 -0.898941 0.106357 -0.424963 14 12 23
0.0220115 -1.06488 7.54619 0.415182 0.228002 -0.880704 12 11 18
0.0399187 -1.06475 7.55399 0.406956 0.156875 -0.899876 15 14 20
-4.88349 -1.43551 9.99631 -0.188827 0.0744142 -0.979187 143 148 150
-4.86083 -1.43568 9.99477 -0.157752 0.458202 -0.874737 144 149 151
-4.83986 -1.42642 10.0014 -0.259972 0.0617634 -0.963639 121 125 122
-4.81244 -1.4286 9.99564 0.0792083 0.0372682 -0.996161 129 133 131
-4.7925 -1.42855 9.99648 0.0581211 -0.00548347 -0.998294 128 132 129
-4.76949 -1.4278 10.0015 0.377248 -0.315283 -0.870793 120 123 121
-4.73722 -1.43322 9.99927 -0.307534 0.191084 -0.932153 129 133 134
-4.71602 -1.43393 9.99552 0.0181126 -0.715019 -0.698871 124 129 130
-4.70497 -1.42848 10.0023 0.0291931 -0.718867 -0.694534 104 107 109
-4.66809 -1.43025 10.0016 0.0224585 -0.647758 -0.761515 117 120 121
-4.65403 -1.43339 10.007 0.015337 -0.173387 -0.984734 121 124 125
-4.62391 -1.43246 9.98774 -0.114523 -0.668544 -0.734802 118 123 120
-4.60914 -1.43305 10.0071 -0.0414309 -0.671939 -0.739447 117 119 119
-4.5793 -1.42942 9.98647 -0.19406 0.331323 -0.923345 115 118 118
-4.55953 -1.43028 9.98712 -0.0588572 0.245058 -0.96772 115 118 118
-4.54167 -1.43198 9.98693 0.0232008 -0.125853 -0.991778 119 123 122
-4.52642 -1.43368 9.99734 -0.0456846 -0.56462 -0.824085 118 122 119
-4.49688 -1.42785 9.98148 -0.374058 0.250834 -0.89284 109 112 109
-4.47121 -1.42569 9.96798 -0.0813271 0.23106 -0.969535 107 112 110
-4.46162 -1.43016 9.99067 0.0829396 -0.722503 -0.686375 110 113 112
-4.4227 -1.43534 9.99069 -0.0332082 -0.304248 -0.952014 120 123 123
-4.39495 -1.43434 9.9737 -0.351231 0.319389 -0.880129 125 127 127
-4.37275 -1.43449 9.96692 -0.270868 0.528334 -0.80467 127 131 130
-4.35301 -1.43751 9.94597 -0.0867385 0.862132 -0.499204 136 141 142
-4.3209 -1.42515 9.94227 -0.127633 0.84879 -0.513094 114 118 116
-4.29538 -1.43067 9.93225 -0.02561 0.87789 -0.478177 128 133 133
-4.27287 -1.42298 9.94283 0.292423 0.667761 -0.684532 104 107 106
-4.25766 -1.43643 9.94642 0.183275 -0.182469 -0.965979 138 142 141
-4.16457 -1.43765 9.94504 -0.134161 0.299577 -0.944592 137 142 138
-4.14671 -1.4388 9.94837 -0.346969 0.237506 -0.907306 137 141 137
-4.12562 -1.43903 9.94133 -0.426939 0.247805 -0.869664 138 143 140
-4.10966 -1.42207 9.93048 -0.121233 0.853201 -0.507297 100 102 102
-4.0877 -1.42939 9.92738 -0.222485 -0.084698 -0.97125 122 125 123
-4.06609 -1.4288 9.91951 0.0195247 0.149795 -0.988524 123 126 125
-4.04647 -1.42839 9.91765 -0.0333124 0.261805 -0.964546 122 125 124
-4.02629 -1.42797 9.91475 -0.105767 0.116746 -0.987514 120 123 121
-4.00911 -1.42899 9.91816 -0.0006565 0.0219883 -0.999758 120 123 120
-3.99172 -1.4298 9.92257 0.133544 -0.205396 -0.969525 120 123 121
-3.96904 -1.42926 9.91661 0.142937 0.2537 -0.956664 121 124 123
-3.94832 -1.42869 9.91014 0.0290404 0.81117 -0.584089 121 125 123
-3.92583 -1.43693 9.90064 -0.0558316 0.877599 -0.476134 144 147 146
-3.92742 -1.43671 9.90124 -0.0437991 0.82736 -0.559962 143 147 145
-3.89886 -1.42811 9.90611 -0.0704029 0.874095 -0.480625 117 120 118
-3.89901 -1.42771 9.9065 -0.206898 0.830272 -0.517535 116 119 117
-3.86747 -1.42989 9.90891 -0.0725795 0.534858 -0.841819 117 119 116
-3.8233 -1.43074 9.88663 -0.0123395 0.880704 -0.473506 124 126 125
-3.79474 -1.42269 9.88868 -0.0641647 0.871878 -0.485501 104 106 106
-3.76907 -1.42863 9.87615 -0.0647572 0.877489 -0.475205 123 126 128
-3.7213 -1.42487 9.8825 -0.0291474 0.755326 -0.654701 110 112 110
-3.63509 -1.43316 9.89169 -0.0557248 0.317878 -0.946493 120 124 123
-3.61721 -1.43352 9.89287 -0.235004 0.0909261 -0.967732 119 123 121
-3.57741 -1.42263 9.87439 0.0252341 0.339322 -0.940332 98 99 99
-3.58679 -1.43815 9.88352 -0.188779 0.415481 -0.889797 135 137 134
-3.51912 -1.42294 9.86257 0.164805 -0.423321 -0.890864 84 85 82
-3.50803 -1.43261 9.83779 -0.140296 0.320785 -0.936704 135 136 133
-2.55988 -0.976545 7.39546 -0.694867 0.0819423 -0.714455 50 46 53
-2.55568 -0.971894 7.41145 -0.619105 -0.0305898 -0.784713 50 45 52
-2.55325 -0.986718 7.43703 -0.697889 0.0988313 -0.709354 48 43 50
-2.59673 -1.03791 7.73858 -0.130591 0.850919 -0.508806 48 43 48
-2.57564 -1.03792 7.72659 -0.280979 0.806417 -0.52033 45 41 47
-2.54168 -1.03655 7.71585 -0.696312 0.0461304 -0.716255 46 41 47
-2.5377 -1.03465 7.72752 -0.644665 0.031387 -0.763821 47 42 47
-2.27794 -1.03062 7.69226 0.45942 0.411374 -0.787213 47 40 43
-2.26596 -1.03287 7.70485 0.358115 0.236298 -0.903281 43 37 42
-2.25968 -1.04386 7.70307 -0.0146375 0.415554 -0.909451 35 34 41
-2.25696 -1.04327 7.70296 0.426573 0.294697 -0.855096 33 32 40
-2.24033 -1.03817 7.721 0.567453 0.312456 -0.761819 28 28 36
-1.46641 -1.04996 7.68405 -0.0154509 0.369505 -0.9291 20 18 27
-1.45405 -1.05155 7.69161 -0.0558432 0.3466 -0.936349 21 20 28
-1.43818 -1.05004 7.68962 0.0930609 0.331425 -0.938881 32 28 32
-1.42642 -1.04869 7.69218 0.298393 0.361619 -0.883285 41 33 35
-0.757605 -1.05466 7.64214 -0.898094 0.106534 -0.426706 14 14 22
0.014746 -1.04806 7.53943 0.415643 0.227664 -0.880574 18 15 21
0.0600363 -1.06991 7.62599 -0.955203 0.0802152 -0.284874 21 17 22
0.0757434 -1.0718 7.65156 -0.95582 0.075187 -0.284176 13 13 20
-4.89194 -1.41038 10.0085 -0.0429457 0.293599 -0.954964 76 78 77
-4.86971 -1.41692 10.003 -0.191194 0.750009 -0.633192 89 93 92
-4.85634 -1.42002 10.0147 -0.365144 0.38946 -0.845571 94 97 96
-4.72745 -1.41113 9.99839 -0.482352 -0.2561 -0.837705 84 86 84
-4.71076 -1.40998 9.99719 -0.47581 -0.273019 -0.836101 83 85 83
-4.68886 -1.40932 9.99464 0.0530308 0.290679 -0.95535 81 83 82
-4.66656 -1.4085 9.99119 -0.452089 0.594426 -0.665036 79 81 81
-4.63336 -1.41824 9.9793 -0.0569263 -0.693887 -0.71783 84 87 87
-4.61122 -1.40749 9.98949 -0.145061 0.473669 -0.868674 72 74 73
-4.56671 -1.40708 9.98458 -0.469726 0.577602 -0.667633 79 80 79
-4.54719 -1.40749 9.98482 -0.45489 0.604172 -0.654256 78 80 78
-4.51936 -1.40522 9.97565 -0.425306 0.64305 -0.636869 78 79 75
-4.50246 -1.40644 9.98193 -0.455405 0.608376 -0.649988 77 78 75
-4.48436 -1.40979 9.98031 -0.463584 0.598158 -0.65368 77 80 77
-4.46191 -1.40896 9.97397 -0.454551 0.614232 -0.64506 81 84 83
-4.4289 -1.4158 9.96909 0.0467569 -0.673817 -0.737418 90 92 89
-4.40576 -1.41568 9.96621 -0.125473 -0.671981 -0.729862 77 79 78
-4.36411 -1.41176 9.9537 -0.0961761 0.857151 -0.506006 83 84 83
-4.37334 -1.41265 9.95173 -0.0682833 0.865194 -0.496766 84 86 85
-4.3452 -1.41944 9.94843 -0.132879 0.845701 -0.516849 99 101 99
-4.31514 -1.40753 9.95089 -0.182705 -0.0393377 -0.98238 73 75 73
-4.29279 -1.40876 9.95043 -0.0293975 0.0955499 -0.99499 72 73 72
-4.27321 -1.40866 9.95022 0.0753642 0.242681 -0.967174 70 72 72
-4.15798 -1.40731 9.96485 0.165994 0.89143 -0.421661 75 75 72
-4.13587 -1.41672 9.94429 0.194812 0.819709 -0.538633 86 88 86
-4.08344 -1.41154 9.94332 -0.46053 0.645113 -0.609706 78 79 79
-4.05901 -1.40785 9.93563 -0.477083 0.62469 -0.618187 77 79 79
-4.04132 -1.41391 9.93211 -0.161285 0.188591 -0.968721 82 83 83
-4.0214 -1.41363 9.92851 -0.137312 0.15331 -0.978592 81 82 82
-3.97861 -1.41867 9.92098 -0.291794 0.674362 -0.678301 92 93 92
-3.9602 -1.41367 9.92097 -0.0131858 0.868979 -0.494673 84 85 85
-3.94585 -1.41282 9.92183 0.063494 0.891709 -0.448133 82 83 83
-3.92348 -1.42106 9.91268 -0.0507919 0.876105 -0.479437 100 102 100
-3.92058 -1.42146 9.91346 -0.0917312 0.868155 -0.487742 100 102 101
-3.91796 -1.421 9.9134 0.144169 0.893112 -0.426107 99 101 99
-3.89552 -1.41218 9.91944 -0.090039 0.866215 -0.491491 83 85 84
-3.8712 -1.4191 9.9209 0.487399 0.413152 -0.769251 87 88 86
-3.84702 -1.41781 9.89898 -0.0506041 0.875117 -0.481258 92 93 91
-3.82281 -1.41843 9.90187 -0.17385 0.492594 -0.852717 90 91 90
-3.81181 -1.40713 9.90501 -0.519377 0.589101 -0.619037 80 81 82
-3.79172 -1.4073 9.90215 -0.166691 0.398027 -0.902102 79 81 81
-3.76678 -1.4134 9.89256 -0.201322 0.766914 -0.609354 86 87 85
-3.73783 -1.41616 9.87222 0.0173777 0.889501 -0.456603 95 96 96
-3.74421 -1.40364 9.88912 -0.363376 0.747553 -0.555988 79 83 82
-3.7182 -1.4009 9.88045 -0.290106 -0.213823 -0.932801 80 83 84
-3.72348 -1.40317 9.88531 -0.53653 -0.316461 -0.782296 78 81 81
-3.69865 -1.40163 9.87796 -0.195184 -0.390252 -0.899782 79 82 83
-3.6769 -1.40927 9.88519 0.0542244 -0.224678 -0.972923 78 81 80
-3.63097 -1.40924 9.88283 -0.307798 -0.288494 -0.906659 79 81 81
-3.59427 -1.41403 9.87597 -0.0873326 0.572303 -0.815378 79 81 78
-3.60365 -1.41593 9.87715 -0.198225 0.169769 -0.965342 86 88 87
-3.56684 -1.40699 9.87347 -0.169307 0.527068 -0.832787 80 82 81
-3.54824 -1.41448 9.86492 -0.611222 -0.189163 -0.768521 78 79 76
-3.52177 -1.4001 9.85663 -0.628808 -0.0865275 -0.772732 81 84 84
-3.49241 -1.41003 9.85267 0.0606795 -0.634083 -0.77088 77 79 77
-2.68203 -1.02235 7.72037 -0.208092 0.257353 -0.943646 56 56 63
-2.67644 -1.02337 7.70304 -0.134011 0.493677 -0.859258 56 55 62
-2.55709 -0.950462 7.36601 -0.686141 0.255513 -0.68112 50 46 53
-2.55045 -1.02791 7.72437 -0.632117 0.016126 -0.774705 45 40 46
-2.54842 -1.02433 7.74538 -0.647799 -0.0545778 -0.759854 44 41 47
-2.54295 -1.02239 7.75026 -0.644677 0.0868919 -0.759501 45 41 47
-2.27344 -1.01942 7.71132 -0.526464 0.225001 -0.819884 46 39 42
-2.26092 -1.0226 7.71417 0.393024 0.222403 -0.892227 39 35 41
-2.2481 -1.02483 7.72057 0.562765 0.331126 -0.757397 29 29 37
-2.24615 -1.02299 7.71993 0.281858 0.279363 -0.917885 29 28 36
-2.25235 -1.03188 7.70968 -0.00124857 0.371014 -0.928626 31 30 38
-2.23454 -1.02042 7.70504 -0.699189 0.113606 -0.705853 28 28 35
-1.47774 -1.03115 7.68574 0.113264 0.932345 -0.343372 19 18 26
-1.46561 -1.0354 7.67913 0.0631763 0.575321 -0.815484 20 19 26
-1.44813 -1.03658 7.68724 0.456358 0.242134 -0.856217 22 20 27
-1.43428 -1.03674 7.69497 0.444431 0.326811 -0.834072 35 30 33
-1.42405 -1.03436 7.69378 0.363256 0.223022 -0.904603 40 33 35
-0.770296 -1.04482 7.65119 -0.89848 0.0964107 -0.428297 17 15 23
-0.75709 -1.0462 7.64459 -0.898761 0.115474 -0.42296 15 14 23
0.0364646 -1.04398 7.58265 0.328153 0.368966 -0.869586 21 18 23
0.0484124 -1.05403 7.61191 -0.95376 0.0829363 -0.2889 16 14 20
0.0601996 -1.04924 7.61645 -0.921266 0.116849 -0.370966 13 13 20
0.0912629 -1.07083 7.67794 -0.955971 0.087369 -0.280153 19 17 23
-4.96996 -1.40048 10.0607 -0.277011 0.714768 -0.642162 80 81 88
-4.9637 -1.39325 10.0444 -0.313088 0.515077 -0.797917 92 94 103
-4.9637 -1.39325 10.0444 -0.313088 0.515077 -0.797917 92 94 103
-4.93274 -1.3912 10.0354 -0.118864 0.832632 -0.54092 97 98 107
-4.91725 -1.39091 10.0351 -0.25234 0.761877 -0.596547 100 103 110
-4.87298 -1.39874 10.0483 0.000486163 0.872761 -0.488148 92 95 100
-4.69916 -1.39141 10.0002 -0.108737 0.219421 -0.969552 94 98 103
-4.66274 -1.39099 10.0082 -0.00177787 0.134059 -0.990972 100 104 107
-4.64219 -1.39284 10.0031 0.0958878 0.463742 -0.880766 92 95 99
-4.62058 -1.39265 9.99959 -0.11308 0.246557 -0.962509 91 95 98
-4.59109 -1.39836 9.99181 -0.459591 0.590729 -0.663186 81 84 85
-4.59918 -1.39103 9.99726 -0.150603 0.235856 -0.960047 97 101 102
-4.5784 -1.38998 9.99531 -0.122155 0.299822 -0.946142 101 105 106
-4.55782 -1.39028 9.99423 -0.0948011 0.37885 -0.92059 100 104 106
-4.53622 -1.38955 9.99195 -0.168675 0.310767 -0.9354 101 104 104
-4.51778 -1.39127 9.99327 -0.0247511 -0.0430585 -0.998766 98 100 99
-4.49584 -1.39038 9.98807 -0.0090507 0.0232184 -0.99969 98 100 101
-4.48327 -1.39101 10.0102 0.206712 0.888307 -0.410098 108 110 111
-4.45611 -1.38827 9.99643 0.155665 0.367015 -0.917098 112 114 116
-4.44923 -1.39109 9.99974 0.162682 0.76155 -0.627357 107 110 113
-4.397 -1.39746 9.97415 0.0597749 0.526209 -0.848252 83 85 87
-4.37682 -1.38964 9.9793 0.133743 0.593147 -0.793908 103 104 106
-4.34891 -1.40002 9.96609 -0.315354 0.74943 -0.582157 80 80 82
-4.35795 -1.38953 9.98753 0.108259 0.890532 -0.441851 111 111 112
-4.32493 -1.39536 9.97508 0.0990847 0.866099 -0.489954 92 94 97
-4.32803 -1.39532 9.9755 0.0908537 0.868371 -0.487523 92 94 97
-4.29735 -1.38938 9.98401 0.117615 0.890933 -0.438641 115 117 117
-4.2707 -1.39858 9.99192 -0.0656322 0.866808 -0.494305 100 102 102
-4.1534 -1.39138 9.98129 0.0937144 0.890785 -0.444656 81 81 80
-4.18966 -1.40831 10.0581 -0.530388 -0.261141 -0.806532 75 75 73
-4.1462 -1.39779 10.0038 -0.0150081 0.879609 -0.475461 85 87 85
-4.12041 -1.40515 9.9946 -0.313188 0.763871 -0.564282 84 85 86
-4.11537 -1.4088 9.97153 -0.405129 0.69528 -0.59368 78 79 79
-4.08784 -1.40646 9.95488 -0.45064 0.654549 -0.607032 78 79 80
-4.0855 -1.40482 9.95251 -0.46713 0.635798 -0.614452 78 80 82
-4.08905 -1.4024 9.95761 -0.47433 0.625425 -0.61956 81 84 86
-4.06026 -1.39368 9.96613 -0.0194964 0.879575 -0.475361 104 106 107
-4.03567 -1.39814 9.95551 -0.00748224 0.881864 -0.471444 90 92 94
-4.00435 -1.40311 9.92995 -0.459537 0.651932 -0.603167 81 83 83
-3.97566 -1.3979 9.93874 -0.347372 0.746858 -0.567041 93 94 95
-3.95424 -1.4021 9.9323 -0.51407 0.580481 -0.631486 83 84 86
-3.92727 -1.38862 9.93014 0.0416496 0.136442 -0.989772 113 114 116
-3.90699 -1.39444 9.93699 0.251361 0.442772 -0.860681 102 104 107
-3.86 -1.39869 9.93177 -0.24307 0.813193 -0.528804 91 93 97
-3.83427 -1.40059 9.91763 -0.469059 0.65629 -0.590989 83 85 90
-3.85109 -1.39817 9.93345 -0.0418787 0.878215 -0.476429 92 95 99
-3.83849 -1.3918 9.9422 0.115307 0.891354 -0.438397 116 116 118
-3.76263 -1.39086 9.9112 -0.231088 0.0632342 -0.970876 110 111 113
-3.71015 -1.38659 9.91036 -0.169952 0.232578 -0.957614 126 128 126
-3.68844 -1.39068 9.89773 -0.100845 -0.182058 -0.978103 113 116 118
-3.66952 -1.39141 9.89971 -0.189764 -0.0705618 -0.979291 114 116 119
-3.66727 -1.39396 9.89815 -0.0580463 0.164339 -0.984695 110 112 114
-3.64905 -1.39414 9.89804 -0.151648 0.16577 -0.974435 106 108 112
-3.63045 -1.39437 9.89178 -0.167637 0.206539 -0.963971 105 108 109
-3.61357 -1.39501 9.89661 0.101601 0.389006 -0.915615 104 107 107
-3.59501 -1.39516 9.89953 0.104583 0.29107 -0.950968 103 106 106
-3.57743 -1.39225 9.89577 -0.110472 0.86764 -0.484764 115 117 115
-3.54977 -1.39692 9.88127 -0.307939 0.791726 -0.527583 96 99 99
-3.51851 -1.39241 9.86312 -0.361013 0.141995 -0.921687 101 103 104
-3.49238 -1.38284 9.85949 0.553869 0.244823 -0.795795 122 124 124
-3.46579 -1.39714 9.84315 0.167207 -0.7087 -0.685409 88 91 93
-2.68598 -1.00853 7.71182 -0.442603 0.466377 -0.765895 56 56 64
-2.55384 -0.951918 7.38804 -0.687086 0.256592 -0.679761 48 44 49
-2.5495 -0.952737 7.40628 -0.68965 0.246345 -0.680953 49 44 51
-2.54589 -0.958345 7.46335 -0.657102 0.18369 -0.731078 48 43 49
-2.54601 -0.959834 7.46725 -0.633673 0.194117 -0.748851 48 43 49
-2.54234 -1.01795 7.75155 -0.703551 0.0146194 -0.710494 46 42 47
-2.268 -1.01025 7.7215 -0.164104 0.34399 -0.924522 45 38 41
-2.25585 -1.01082 7.71952 -0.319408 0.278113 -0.905887 35 32 38
-2.24291 -1.01079 7.71971 0.0229076 0.382751 -0.923568 29 28 35
-1.46244 -1.02117 7.66703 0.144525 0.877026 -0.458191 20 19 26
-1.4569 -1.02514 7.69429 -0.0740183 0.403586 -0.911943 20 18 26
-1.44268 -1.0242 7.69559 0.444717 0.298768 -0.844373 26 23 29
-1.41654 -1.02359 7.69807 0.56294 0.218833 -0.797001 40 34 35
-0.776437 -1.0346 7.6606 -0.897695 0.0789991 -0.433478 24 21 26
-0.763628 -1.03353 7.64263 -0.898426 0.112803 -0.424389 15 14 21
-0.753203 -1.03287 7.66778 -0.899492 0.109501 -0.422994 15 14 21
0.0525337 -1.03676 7.61947 -0.954991 0.0713087 -0.287936 12 12 19
0.0795768 -1.05444 7.66143 -0.955447 0.0879263 -0.281762 15 15 21
-4.94805 -1.37105 10.0416 -0.229167 -0.176087 -0.957327 142 145 147
-4.94776 -1.37095 10.041 -0.228222 -0.174966 -0.957759 142 145 147
-4.94782 -1.37097 10.0411 -0.230121 -0.173842 -0.957509 142 145 147
-4.75084 -1.33738 9.82011 0.220356 0.271581 -0.936849 132 136 140
-4.70838 -1.37104 10.0024 -0.172407 0.114228 -0.97838 140 145 145
-4.70177 -1.36901 9.98473 0.168213 0.845692 -0.506469 139 145 144
-4.68782 -1.37166 9.99981 -0.265665 0.102681 -0.958582 141 147 143
-4.67069 -1.37279 10.0057 -0.0279769 0.0988246 -0.994712 141 145 142
-4.65157 -1.37307 10.008 0.0356553 0.187082 -0.981697 140 144 142
-4.63145 -1.37328 10.0078 -0.0697508 0.213667 -0.974413 142 147 143
-4.61396 -1.37507 10.0117 -0.268127 0.178469 -0.946708 142 149 143
-4.59218 -1.37467 10.0072 -0.103926 0.168773 -0.980161 142 149 144
-4.56992 -1.37377 10.0028 0.0359002 0.247533 -0.968214 143 149 144
-4.54931 -1.3735 10.002 0.00593996 0.262938 -0.964795 142 148 142
-4.52738 -1.3726 10.0026 -0.156316 0.290431 -0.944042 144 150 142
-4.51465 -1.37685 10.0086 0.0884187 0.251114 -0.963911 140 146 139
-4.4843 -1.37097 9.99356 0.11934 0.404493 -0.906721 143 146 144
-4.46218 -1.37018 9.99166 0.0982816 0.43941 -0.892894 141 145 144
-4.45001 -1.3735 10.0129 0.162748 0.530307 -0.832038 142 146 145
-4.42227 -1.38492 9.99458 0.301748 0.562714 -0.769611 122 123 123
-4.43171 -1.384 10.0094 0.14975 0.890553 -0.429523 129 131 129
-4.3935 -1.37858 9.97914 0.0898837 0.585312 -0.80581 128 129 128
-4.36659 -1.37205 9.98079 0.377895 0.470787 -0.797217 139 140 136
-4.3256 -1.3805 9.99794 0.1297 0.890382 -0.436347 135 136 131
-4.2311 -1.3925 10.022 0.323104 0.867418 -0.378405 129 128 122
-4.20351 -1.39692 10.0446 0.31495 0.86979 -0.379831 74 75 74
-4.19716 -1.40041 10.044 -0.55593 -0.0352105 -0.830483 76 76 74
-4.16222 -1.38043 10.0092 -0.277146 0.635273 -0.720845 86 86 84
-4.16121 -1.37681 10.0149 -0.471134 -0.0918542 -0.877266 89 91 87
-4.12 -1.39179 10.0255 -0.453084 0.649283 -0.610857 121 122 122
-4.09106 -1.38794 9.99245 -0.325249 0.756012 -0.568031 128 129 127
-4.0681 -1.39198 9.98309 0.0762807 0.890396 -0.448749 116 117 116
-4.04556 -1.37633 9.9924 -0.229821 0.805622 -0.546036 140 141 133
-4.00978 -1.39109 9.97132 0.160247 0.890149 -0.426563 121 120 118
-3.94732 -1.37944 9.93946 0.148482 0.596164 -0.789013 132 133 130
-3.9295 -1.37279 9.94887 0.182462 0.766961 -0.615206 139 141 136
-3.91124 -1.38468 9.94863 0.0962343 0.89088 -0.443929 130 130 129
-3.88549 -1.38463 9.95936 0.038476 0.888185 -0.457872 132 133 130
-3.87005 -1.3932 10.0129 0.0103681 0.885563 -0.464404 132 132 128
-3.75236 -1.37286 9.91362 -0.345637 0.00515536 -0.938354 140 141 135
-3.69854 -1.36381 9.88978 -0.559363 -0.282222 -0.7794 142 144 139
-3.64738 -1.38312 9.91306 -0.161979 0.481289 -0.861466 135 137 131
-3.62593 -1.38014 9.91111 -0.313808 0.195859 -0.929066 137 138 132
-3.53447 -1.37734 9.88411 -0.635172 0.185033 -0.74988 131 133 127
-3.46827 -1.37343 9.83103 0.356843 -0.477998 -0.802609 130 132 132
-2.70475 -0.989693 7.72585 -0.533492 0.154457 -0.831582 58 58 68
-2.67664 -0.997864 7.72102 -0.236877 0.176968 -0.955286 55 55 64
-2.68183 -0.985918 7.72024 -0.154645 0.054867 -0.986445 56 56 67
-2.55222 -0.934846 7.37057 -0.68573 0.2581 -0.680558 48 45 50
-2.55227 -0.934865 7.3709 -0.686001 0.258341 -0.680193 48 45 50
-2.55223 -0.934838 7.37075 -0.686057 0.258518 -0.680069 48 45 50
-2.54825 -0.935761 7.39028 -0.68767 0.254833 -0.679831 48 44 49
-2.54695 -0.942578 7.45957 -0.676427 0.325683 -0.660589 47 42 47
-2.54077 -1.00593 7.75041 -0.566512 0.0717162 -0.820927 46 41 46
-2.27164 -0.998343 7.72319 -0.414243 0.323628 -0.850687 45 38 40
-2.26256 -1.00061 7.72493 -0.522866 0.396223 -0.754731 43 36 40
-2.2495 -1.0005 7.7241 -0.0235961 0.408254 -0.912563 31 28 37
-2.23608 -1.00269 7.72017 -0.0813979 0.382802 -0.920237 29 28 37
-1.4625 -1.01181 7.69114 0.126111 0.917801 -0.37648 18 17 24
-1.4497 -1.0132 7.70136 0.183166 0.344182 -0.920863 19 19 25
-1.4382 -1.01213 7.69882 0.238275 0.365458 -0.899814 29 26 30
-1.42514 -1.01199 7.69949 0.204554 0.397639 -0.89445 40 33 35
-1.41401 -1.01029 7.69645 0.247656 0.279861 -0.927547 40 33 35
-1.40154 -1.00971 7.6979 0.0274008 0.126789 -0.991551 39 32 34
-1.39133 -1.0078 7.69137 0.0945626 0.227045 -0.969282 38 31 34
-0.782456 -1.02296 7.66468 -0.896509 0.122614 -0.42572 30 25 29
-0.761728 -1.0157 7.64083 -0.896354 0.104029 -0.43096 15 13 22
0.0690072 -1.03569 7.64397 -0.955659 0.0721861 -0.28549 20 17 23
0.0849972 -1.03813 7.67696 -0.95619 0.0625524 -0.285985 22 19 24
0.0867071 -1.03625 7.67999 -0.956241 0.0681997 -0.284521 26 22 27
-4.71644 -1.35147 10.0016 -0.494214 -0.237429 -0.83629 145 149 149
-4.68298 -1.34616 9.97228 -0.499385 -0.229319 -0.835481 146 151 150
-4.66746 -1.35051 9.97951 -0.470091 -0.295224 -0.83178 146 150 149
-4.63897 -1.35479 10.0069 -0.0642961 0.396291 -0.915871 148 150 149
-4.65608 -1.35411 9.99906 -0.440945 0.608307 -0.659947 152 153 150
-4.6126 -1.35109 9.99337 -0.442463 0.610439 -0.656956 156 157 155
-4.52721 -1.36006 10.0228 -0.448219 0.61347 -0.650195 149 152 151
-4.49541 -1.35496 9.99957 -0.498289 -0.270985 -0.823575 148 152 151
-4.4573 -1.35846 10.0409 0.826791 0.497334 -0.262822 147 151 152
-4.41901 -1.36927 10.0332 0.898384 0.356936 -0.255937 147 150 151
-4.37697 -1.36063 10.0247 0.789187 0.552459 -0.268279 148 151 154
-4.33616 -1.36375 9.97213 0.185708 0.771484 -0.608543 142 144 140
-4.31452 -1.36215 9.99985 0.138084 0.93371 -0.330331 146 145 138
-4.21679 -1.36955 10.0501 -0.549587 -0.214576 -0.80741 106 110 111
-4.19626 -1.38187 10.0558 -0.44863 -0.19369 -0.872477 77 79 77
-4.19765 -1.37867 10.0499 -0.548692 -0.22014 -0.806521 77 79 78
-4.09518 -1.37035 10.0288 -0.485867 0.607363 -0.628525 142 144 140
-4.05799 -1.36799 9.983 -0.508182 0.575494 -0.640748 141 144 137
-4.01001 -1.35824 9.9782 -0.529826 0.543743 -0.650867 148 151 154
-3.94892 -1.36329 9.95648 0.85297 0.443758 -0.274812 147 151 153
-3.88507 -1.37617 10.0009 0.372589 0.693859 -0.616228 142 144 138
-3.9103 -1.36759 10.0283 0.877505 0.391235 -0.277344 148 152 156
-3.8291 -1.37474 9.98167 -0.0403655 0.29526 -0.954564 139 139 131
-2.70313 -0.969502 7.7055 -0.51023 0.48666 -0.709103 58 59 70
-2.68588 -0.970716 7.70488 -0.571774 -0.308213 -0.760316 57 58 69
-2.54624 -0.915252 7.33844 -0.684814 0.260996 -0.680376 48 44 50
-2.54645 -0.915367 7.33933 -0.684842 0.261124 -0.680299 48 44 50
-2.54907 -0.920241 7.38133 -0.666399 0.309987 -0.6781 47 44 50
-2.5478 -0.91509 7.34284 -0.650727 0.380646 -0.65701 48 44 50
-2.54658 -0.915461 7.33962 -0.684891 0.260822 -0.680365 48 44 50
-2.53993 -0.919069 7.38408 -0.684422 0.264121 -0.679563 48 43 50
-2.54242 -0.919419 7.39162 -0.692437 0.222636 -0.686268 47 43 48
-2.53865 -0.990699 7.74962 -0.482204 0.0437618 -0.874965 46 41 46
-2.52981 -0.993067 7.75614 -0.689205 -0.0664064 -0.721517 47 41 46
-2.52351 -0.985801 7.76012 -0.652605 -0.0724241 -0.754229 48 42 46
-2.25197 -0.957332 7.54808 -0.518726 0.275206 -0.809435 38 35 40
-2.25583 -0.989837 7.7274 -0.11921 0.263267 -0.957329 37 33 38
-1.45361 -1.00418 7.7108 0.22 0.20542 -0.953626 18 17 24
-1.4446 -1.00139 7.70194 0.0972341 0.246205 -0.964328 21 19 25
-1.43164 -1.00131 7.70307 0.139224 0.281298 -0.949467 37 31 34
-1.41979 -1.00043 7.7018 0.182389 0.262653 -0.947495 41 33 36
-1.40521 -1.00042 7.70622 0.225663 -0.0676248 -0.971856 40 33 35
-0.790244 -1.00798 7.6704 0.531297 0.128826 -0.837333 34 27 30
-0.778727 -1.00843 7.66491 -0.742992 0.189331 -0.641963 25 21 26
-0.767031 -1.00713 7.65971 -0.89876 0.0909309 -0.428908 17 15 23
0.074928 -1.02005 7.66311 -0.955694 0.07573 -0.284455 19 16 23
0.074314 -1.0271 7.6651 -0.954284 0.0209156 -0.29817 20 18 23
-4.20921 -1.35436 10.0595 -0.547545 -0.223097 -0.806487 91 94 96
-4.19728 -1.36252 10.0683 -0.520346 -0.154699 -0.839827 82 84 84
-4.16444 -1.34147 10.0219 -0.575098 -0.156853 -0.802907 97 99 94
-4.17029 -1.36283 10.0557 -0.303655 0.47483 -0.826033 98 99 95
-3.40526 -1.13944 8.78943 0.0887086 0.876603 -0.472967 118 120 122
-3.38773 -1.12312 8.72515 -0.0395407 0.917524 -0.395709 118 118 117
-3.63781 -1.33985 9.93263 -0.357796 0.447624 -0.819521 146 146 141
-2.69375 -0.959089 7.69531 0.0114338 0.608172 -0.793723 58 59 71
-2.54463 -0.898535 7.32098 -0.685334 0.252626 -0.683007 47 44 49
-2.5411 -0.899421 7.34157 -0.685762 0.25146 -0.683007 48 43 48
-2.54104 -0.899385 7.34136 -0.686885 0.249324 -0.682662 47 43 48
-2.54144 -0.904099 7.38073 -0.68977 0.237045 -0.684125 48 42 47
-2.52907 -0.974583 7.74607 -0.570029 -0.277359 -0.773395 47 41 45
-2.5273 -0.970455 7.76753 -0.654766 -0.195708 -0.730055 47 42 44
-2.24451 -0.976074 7.72719 -0.335527 0.131286 -0.932837 28 27 34
-2.22835 -0.976349 7.71981 -0.637119 0.124596 -0.760628 26 26 34
-1.44983 -0.99145 7.70802 0.00120619 0.198234 -0.980154 18 18 24
-1.45388 -0.997513 7.73036 0.0476299 0.11204 -0.992562 18 17 23
-1.4379 -0.990533 7.70607 0.105867 0.20997 -0.971959 28 24 29
-1.42548 -0.990091 7.70587 -0.0415945 0.238485 -0.970255 40 33 35
-1.41364 -0.989416 7.70283 0.32561 0.198268 -0.924483 39 33 35
-0.790932 -0.985277 7.64218 0.530114 0.2045 -0.822897 29 24 29
-0.772561 -0.995139 7.65937 -0.557489 0.297518 -0.775041 20 17 24
0.0878525 -1.02001 7.68371 -0.956 0.0784064 -0.282695 27 23 27
0.0993291 -1.014 7.68876 -0.956669 0.0720121 -0.282134 33 27 30
-4.22993 -1.34224 10.0667 -0.580834 -0.123243 -0.804638 141 147 152
-4.23297 -1.32383 10.0551 -0.225081 -0.0428525 -0.973397 150 157 163
-4.22064 -1.3259 10.071 -0.577837 -0.131861 -0.80543 124 129 133
-4.20042 -1.33783 10.0654 -0.567784 -0.174403 -0.804491 83 86 87
-3.3876 -1.13734 8.81585 0.0257587 0.873211 -0.486661 130 132 130
-3.36767 -1.13712 8.8241 0.652484 0.37497 -0.65853 133 135 133
-3.35662 -1.14062 8.86396 0.781484 0.297855 -0.548238 145 148 151
-3.34014 -1.14674 8.86266 0.00658071 0.133003 -0.991094 139 143 147
-2.70632 -0.942732 7.70897 -0.251439 0.800228 -0.544439 58 61 74
-2.69281 -0.947981 7.69589 -0.0593686 0.641206 -0.765069 57 60 73
-2.53527 -0.903123 7.39246 -0.688863 0.250674 -0.68017 47 42 47
-2.53389 -0.966321 7.74637 -0.562232 -0.373197 -0.737983 45 41 44
-2.52306 -0.960906 7.77271 -0.56302 -0.201727 -0.801445 47 42 44
-2.23608 -0.963361 7.71796 -0.677682 0.151996 -0.719475 26 26 34
-1.44504 -0.97944 7.70833 0.180414 0.286502 -0.94094 20 19 25
-1.45355 -0.982808 7.71577 0.260604 0.235983 -0.936161 18 18 24
-1.43212 -0.979246 7.71014 -0.271699 0.297405 -0.915276 35 30 33
-1.41972 -0.978752 7.70632 0.0691972 0.228833 -0.971003 40 33 35
-1.39698 -0.978438 7.68838 -0.163326 0.406931 -0.898739 38 31 32
-0.765605 -0.979122 7.65625 0.526907 0.16514 -0.833725 15 13 22
0.0782614 -1.00222 7.67083 -0.955793 0.0751679 -0.284272 20 17 23
-4.22942 -1.30929 10.0725 -0.574502 -0.143237 -0.805873 149 157 168
-4.19705 -1.32212 10.0807 0.115915 -0.0414281 -0.992395 83 85 85
-3.37538 -1.12221 8.87018 0.884464 -0.0921603 -0.457416 147 150 157
-3.34833 -1.12672 8.86654 0.520993 0.643155 -0.561175 143 146 143
-2.68682 -0.936822 7.71439 -0.394711 0.500641 -0.77043 54 58 69
-2.67644 -0.944556 7.72311 -0.322147 0.440839 -0.837784 53 54 64
-2.53063 -0.887381 7.39742 -0.658274 0.381875 -0.648727 46 41 46
-2.52544 -0.949452 7.74164 -0.641091 -0.230136 -0.732147 46 41 45
-2.52461 -0.949634 7.73698 -0.653351 -0.199487 -0.7303 47 41 45
-2.52461 -0.949636 7.73699 -0.651931 -0.202934 -0.730618 47 41 45
-2.52461 -0.949636 7.73699 -0.651931 -0.202934 -0.730618 47 41 45
-2.51674 -0.95056 7.76995 -0.683888 0.00167775 -0.729585 48 42 46
-2.27164 -0.948422 7.73212 -0.0027698 0.555197 -0.831714 44 38 38
-2.23251 -0.947482 7.71854 -0.711442 0.151621 -0.686193 27 27 34
-1.45215 -0.968338 7.71225 0.332963 0.324759 -0.88525 18 17 24
-1.44138 -0.966387 7.71209 -0.110477 0.396028 -0.911568 22 20 26
-1.42824 -0.966521 7.71103 0.0646154 0.377238 -0.923859 38 32 34
-1.41338 -0.967589 7.71597 0.520772 0.210998 -0.82721 38 33 35
-1.4011 -0.967766 7.71101 0.565156 -0.443144 -0.695861 41 33 35
-1.39948 -0.959114 7.71021 0.566868 -0.37023 -0.735928 40 32 34
-0.78058 -0.972782 7.64824 0.522198 0.099504 -0.846999 23 19 25
-0.780464 -0.97284 7.64846 0.521172 0.103717 -0.847126 23 19 25
0.0913477 -1.0001 7.69115 -0.956333 0.0720548 -0.283259 29 25 28
0.101117 -0.99268 7.68917 -0.956577 0.0805479 -0.280129 34 28 30
-4.23134 -1.28874 10.0524 0.515634 0.0279059 -0.856355 155 163 171
-4.22004 -1.29219 10.0721 -0.0736077 -0.0528659 -0.995885 135 142 148
-4.20358 -1.3039 10.0712 -0.278071 -0.0667215 -0.95824 89 91 93
-4.18897 -1.30661 10.0815 -0.273856 0.0152465 -0.96165 86 88 87
-4.18989 -1.30625 10.0878 0.0868622 0.0696172 -0.993785 87 88 87
-2.7691 -0.930038 7.74364 -0.568967 -0.316748 -0.758912 66 74 87
-2.7495 -0.932492 7.73938 -0.607528 0.105942 -0.787201 62 66 79
-2.67145 -0.921563 7.70937 -0.658211 0.138885 -0.739912 51 51 59
-2.52893 -0.93182 7.7329 -0.662704 -0.173921 -0.728406 45 40 44
-2.51573 -0.932538 7.76625 -0.643262 0.0281528 -0.765128 50 43 47
-2.2673 -0.940918 7.74285 -0.111631 0.506876 -0.85476 44 38 38
-2.22888 -0.930826 7.70866 -0.722546 0.248912 -0.644958 27 26 33
-2.2217 -0.933159 7.71622 -0.0590567 0.388122 -0.919714 26 25 32
-2.22074 -0.940961 7.72203 -0.50998 0.254864 -0.821562 26 25 33
-1.45964 -0.956861 7.71688 0.597834 0.205856 -0.774738 17 16 22
-1.45085 -0.953612 7.71171 0.433768 0.356403 -0.82754 18 16 22
-1.43691 -0.953774 7.7195 -0.0821434 0.40283 -0.911581 26 22 27
-1.42413 -0.953598 7.71766 -0.0565561 0.390593 -0.918824 39 32 34
-0.785359 -0.952531 7.62978 0.526771 0.157668 -0.835256 21 18 25
-0.770977 -0.959905 7.65315 0.526479 0.154108 -0.836105 17 14 23
-0.759441 -0.949904 7.63585 -0.89616 0.14905 -0.417949 13 12 21
0.0931622 -0.978962 7.69204 -0.956284 0.0738885 -0.282953 31 26 28
-4.23394 -1.26887 10.0561 0.436325 0.280623 -0.85491 155 163 173
-4.21034 -1.27504 10.0771 -0.150278 0.208536 -0.9664 108 112 115
-4.1823 -1.28891 10.1252 0.919262 0.101504 -0.380335 105 105 101
-2.64453 -0.88969 7.57469 -0.68957 0.0631355 -0.721462 50 49 56
-2.52634 -0.924313 7.74445 -0.686411 -0.0869365 -0.721998 45 40 43
-2.52278 -0.918115 7.75763 -0.693316 -0.0688623 -0.717336 47 41 45
-2.27422 -0.928742 7.73957 0.396825 0.561036 -0.726477 45 38 38
-2.26112 -0.93062 7.74935 0.089741 0.472108 -0.876961 42 36 38
-2.2495 -0.92953 7.75715 -0.692024 0.211923 -0.690066 36 32 36
-1.45569 -0.943871 7.72297 0.469907 0.332371 -0.817751 17 16 22
-1.44356 -0.942835 7.72618 -0.108507 0.470462 -0.875724 18 17 23
-1.43002 -0.943354 7.72336 -0.185616 0.483112 -0.855657 34 28 31
-1.41471 -0.943875 7.72357 0.350216 0.405586 -0.844304 40 32 35
-0.757671 -0.93907 7.65767 -0.896922 0.0937042 -0.432147 14 12 22
0.105252 -0.973208 7.69979 -0.951852 0.0757392 -0.297056 34 28 31
-4.23489 -1.25658 10.0571 0.302281 0.443657 -0.843679 155 163 174
-4.22099 -1.25865 10.0767 0.355007 0.377013 -0.855472 144 152 160
-4.20703 -1.26178 10.0806 -0.080105 0.282191 -0.956008 100 103 106
-4.2011 -1.26083 10.0793 -0.21713 0.357544 -0.908304 89 92 94
-4.18797 -1.26356 10.1014 0.696113 0.332932 -0.636069 90 91 89
-4.18124 -1.27057 10.13 0.919286 0.0706714 -0.387193 104 106 101
-4.16442 -1.2679 10.1566 0.918128 0.0655873 -0.390819 125 127 128
-2.69951 -0.90477 7.74964 0.0624455 0.254943 -0.964938 55 58 71
-2.69576 -0.906388 7.74833 0.319479 0.511922 -0.797414 54 57 69
-2.66202 -0.900464 7.70953 -0.0723307 0.843424 -0.532358 50 48 55
-2.66205 -0.900457 7.70978 -0.100335 0.839191 -0.534501 50 48 55
-2.5258 -0.905258 7.73408 -0.677729 -0.130302 -0.723675 46 40 44
-2.51895 -0.901489 7.76317 -0.456817 -0.251753 -0.853193 47 41 45
-2.27115 -0.915263 7.76276 -0.300604 0.480634 -0.823789 45 37 39
-2.27676 -0.907914 7.7621 -0.100427 0.737144 -0.668231 45 37 38
-2.25938 -0.91332 7.76513 -0.0189053 0.570907 -0.820797 43 36 38
-2.25661 -0.91681 7.7618 -0.389236 0.443909 -0.807118 42 36 38
-2.24325 -0.912523 7.76155 -0.685116 0.397413 -0.610474 30 28 32
-2.24453 -0.913533 7.75996 0.00859463 0.541541 -0.840631 31 29 33
-2.25577 -0.908598 7.76775 -0.156146 0.573055 -0.804504 42 36 38
-2.22683 -0.917051 7.7568 -0.0495099 0.538923 -0.840899 25 24 29
-1.45225 -0.930736 7.72594 0.471165 0.31975 -0.822048 17 16 23
-1.43706 -0.931828 7.72851 -0.122186 0.390002 -0.912672 23 20 25
-1.42209 -0.93295 7.72753 0.172962 0.381837 -0.907902 39 31 33
-1.40929 -0.93242 7.72807 0.339509 0.336087 -0.87851 39 31 34
-0.762966 -0.930573 7.67772 -0.899003 0.0876282 -0.429087 16 15 23
-4.23055 -1.2418 10.0745 0.290541 0.431349 -0.854122 156 164 175
-4.21328 -1.24269 10.0845 -0.191947 0.460842 -0.866476 123 127 130
-4.19506 -1.24444 10.0907 0.525006 0.343389 -0.778751 85 87 88
-2.72762 -0.89006 7.73266 -0.00708376 0.543973 -0.839073 58 64 79
-2.72424 -0.886486 7.74427 0.34918 0.536366 -0.768365 57 63 77
-2.7125 -0.883834 7.75938 -0.3701 0.342417 -0.863584 53 56 69
-2.70869 -0.881575 7.75093 -0.103758 0.359954 -0.927182 53 55 67
-2.70624 -0.894062 7.75267 -0.211888 0.19172 -0.958304 54 56 68
-2.69828 -0.884224 7.74724 -0.0291024 0.228807 -0.973037 52 53 64
-2.52789 -0.897527 7.74667 -0.397262 -0.16545 -0.902668 45 40 43
-2.52934 -0.893885 7.73967 -0.453097 -0.03483 -0.890781 45 39 43
-2.52763 -0.897366 7.74567 -0.370748 -0.18766 -0.909577 45 40 43
-2.28613 -0.848946 7.49137 -0.54757 0.635934 -0.543833 40 34 35
-2.28729 -0.861497 7.49457 -0.566791 0.612797 -0.550661 41 35 37
-2.27682 -0.89574 7.77304 -0.0472863 0.551768 -0.832656 45 36 38
-2.2768 -0.895742 7.77317 -0.0509741 0.556965 -0.828971 45 36 38
-2.24413 -0.902175 7.76932 -0.0653732 0.595485 -0.800702 33 29 33
-2.24859 -0.8974 7.76933 0.403173 0.47829 -0.780186 38 33 35
-2.2305 -0.898666 7.77422 0.260034 0.50047 -0.82578 25 24 30
-1.44281 -0.921502 7.73409 -0.261225 0.227133 -0.938175 17 16 23
-1.45252 -0.910861 7.7337 0.302572 0.174019 -0.937106 16 15 22
-1.43096 -0.920809 7.72963 -0.129428 0.213677 -0.968293 31 26 30
-1.43588 -0.910659 7.73567 -0.612755 0.156628 -0.774596 22 20 25
-1.42386 -0.910207 7.73218 0.0357246 0.129108 -0.990987 37 30 32
-1.41683 -0.921708 7.73208 0.336683 0.204596 -0.919122 40 32 34
-1.40975 -0.91087 7.73527 0.183387 0.151943 -0.971227 40 33 34
-1.40282 -0.922366 7.7344 0.667273 -0.315779 -0.674559 41 33 35
-0.755567 -0.922364 7.66459 -0.899607 0.0932457 -0.426629 14 13 21
-0.755818 -0.922285 7.66405 -0.899388 0.0935509 -0.427024 14 13 21
-0.749427 -0.91515 7.6596 -0.641417 0.164059 -0.749445 13 11 19
-4.22891 -1.21714 10.0454 0.27215 0.527211 -0.804974 154 162 173
-4.22347 -1.22632 10.0864 0.19832 0.396088 -0.89654 150 157 164
-4.21867 -1.21575 10.0887 0.585516 0.15829 -0.795056 142 147 151
-4.20121 -1.21765 10.0961 0.0427715 0.270204 -0.961853 90 93 96
-4.16531 -1.23528 10.146 0.918359 0.0670818 -0.390021 121 122 119
-2.73744 -0.870954 7.74739 0.22823 0.744559 -0.62733 59 65 81
-2.73705 -0.871915 7.7442 0.0553595 0.733953 -0.676941 59 65 81
-2.73744 -0.870955 7.74735 0.229807 0.739234 -0.633026 59 65 81
-2.72611 -0.869045 7.75186 -0.345721 0.374688 -0.860283 55 61 75
-2.73381 -0.873392 7.74834 0.215773 0.598366 -0.771622 58 64 80
-2.71502 -0.871104 7.74485 -0.180759 0.362309 -0.914362 53 57 69
-2.70132 -0.871016 7.75095 -0.277066 0.564686 -0.777409 51 52 62
-2.6794 -0.87342 7.75166 -0.387672 0.727917 -0.565551 48 47 54
-2.6385 -0.847805 7.58579 -0.512205 0.634384 -0.578967 50 48 56
-2.52696 -0.885853 7.75811 -0.507652 -0.167075 -0.845207 45 39 43
-2.52683 -0.877658 7.77666 -0.695478 -0.0667672 -0.715438 44 38 42
-2.52686 -0.877791 7.77628 -0.694865 -0.0695897 -0.715765 44 38 42
-2.52628 -0.878758 7.7833 -0.698291 -0.0533244 -0.713825 44 38 42
-2.27394 -0.847644 7.52749 -0.557844 0.612839 -0.559678 39 34 37
-2.26085 -0.848407 7.51571 -0.646137 0.489631 -0.585465 39 33 37
-2.2719 -0.847519 7.52983 -0.527973 0.660826 -0.533436 39 34 37
-2.22717 -0.83713 7.43652 -0.454474 0.714326 -0.532157 30 27 31
-2.24445 -0.890432 7.7764 0.227761 0.385989 -0.893945 34 30 33
-2.25711 -0.887066 7.77699 0.245583 0.451935 -0.85758 43 35 35
-1.44627 -0.899617 7.73594 0.0792955 0.177801 -0.980866 17 16 22
-1.43212 -0.897156 7.73633 0.10783 0.157238 -0.981656 24 21 25
-1.40321 -0.899647 7.73993 -0.237827 0.0842628 -0.967646 37 31 33
-1.39685 -0.91022 7.73483 0.569583 -0.325953 -0.754539 40 32 35
-1.38428 -0.908518 7.72953 0.137888 -0.709522 -0.691061 38 30 32
-0.761692 -0.912991 7.67862 -0.899315 0.0717713 -0.431371 16 14 22
-0.7615 -0.912944 7.67838 -0.899127 0.0719285 -0.431738 16 14 22
-0.753214 -0.907173 7.68014 -0.888782 0.108076 -0.445406 14 13 21
-4.24305 -1.19057 10.1032 -0.570333 0.0832949 -0.81718 158 164 173
-4.22882 -1.20464 10.078 0.673855 0.288409 -0.680249 154 162 172
-4.22071 -1.19094 10.0934 0.524507 0.188303 -0.830322 147 153 160
-4.22304 -1.19528 10.0919 0.469348 0.340204 -0.814846 150 156 164
-4.2068 -1.19809 10.0972 -0.197156 0.418914 -0.886363 108 111 113
-4.19272 -1.20124 10.1132 0.882366 0.0812509 -0.463496 84 87 88
-4.18137 -1.21599 10.1436 0.919298 0.0715458 -0.387005 103 104 99
-2.7278 -0.856423 7.74779 -0.408301 0.329514 -0.8513 53 59 73
-2.71903 -0.858913 7.76155 -0.170099 0.427298 -0.887966 52 55 67
-2.69324 -0.860847 7.75393 -0.318292 0.697575 -0.641934 50 48 56
-2.54309 -0.871431 7.80853 -0.694847 0.135682 -0.706242 44 37 41
-2.52682 -0.87633 7.80995 -0.699623 -0.0511838 -0.712676 43 37 42
-2.52758 -0.874203 7.80699 -0.703981 -0.0162093 -0.710034 43 37 42
-2.49462 -0.877406 7.7991 0.136605 0.00863276 -0.990588 47 40 44
-2.27195 -0.834935 7.53399 -0.529818 0.657294 -0.535964 40 33 35
-2.2589 -0.835634 7.52517 -0.530782 0.657902 -0.534262 39 33 35
-2.25693 -0.834142 7.51725 -0.60693 0.557149 -0.566764 38 33 36
-2.267 -0.871674 7.78816 -0.740253 0.0160814 -0.672137 44 36 38
-1.44198 -0.885219 7.73813 0.198899 0.168213 -0.965476 17 15 22
-1.419 -0.897144 7.73773 0.0603607 0.158824 -0.98546 37 31 32
-1.42516 -0.886219 7.74031 0.118177 0.19316 -0.974024 33 28 30
-1.41403 -0.884989 7.73692 0.20337 0.21865 -0.954376 38 32 32
-1.38226 -0.895147 7.72735 0.358032 -0.0231914 -0.933421 38 30 31
-0.778455 -0.884486 7.57069 -0.331427 0.833096 -0.442841 17 15 23
-0.76765 -0.90223 7.68663 -0.897922 0.109442 -0.426332 20 17 24
-0.7675 -0.90215 7.68607 -0.898002 0.1076 -0.426631 20 16 24
-0.757922 -0.890985 7.67048 -0.899172 0.0932695 -0.427539 15 13 23
-0.750019 -0.90548 7.68663 -0.900027 0.0872016 -0.427021 15 13 22
-0.750019 -0.90548 7.68663 -0.900027 0.0872016 -0.427021 15 13 22
-0.750019 -0.90548 7.68663 -0.900027 0.0872016 -0.427021 15 13 22
-4.23214 -1.16933 10.1086 -0.454385 0.209749 -0.86576 151 158 165
-4.17244 -1.18469 10.1039 0.960068 0.137118 -0.243859 101 101 97
-2.77191 -0.84788 7.73801 -0.443258 0.69868 -0.561576 59 65 83
-2.76263 -0.842687 7.76608 -0.512441 0.616663 -0.597605 59 65 81
-2.74921 -0.843324 7.76298 -0.380173 0.367406 -0.848812 57 63 79
-2.72401 -0.84753 7.76492 -0.0696568 0.362161 -0.929509 52 54 67
-2.73424 -0.842911 7.76102 -0.291651 0.392659 -0.872215 53 58 72
-2.69065 -0.848734 7.76356 -0.467364 0.670085 -0.576677 49 46 53
-2.6632 -0.853426 7.80862 -0.419964 0.707256 -0.568699 47 44 51
-2.60232 -0.822544 7.61834 0.798643 -0.347761 -0.491153 46 42 47
-2.62841 -0.84754 7.76463 0.778092 0.0160198 -0.627946 44 41 47
-2.53781 -0.866795 7.8221 -0.697648 0.0411047 -0.715261 43 37 41
-2.52756 -0.859271 7.81689 -0.65492 0.0486347 -0.754131 45 38 41
-2.49842 -0.852448 7.79733 -0.659187 -0.211033 -0.72176 45 39 41
-2.48607 -0.857821 7.78954 -0.639095 -0.261853 -0.723181 46 40 41
-2.4755 -0.863433 7.79028 -0.58587 -0.363926 -0.724096 47 40 42
-2.47355 -0.858778 7.77904 -0.150079 -0.727711 -0.669263 46 40 41
-2.43462 -0.825165 7.60037 -0.706619 0.246996 -0.663086 45 39 41
-2.25676 -0.823661 7.51568 -0.442736 0.716839 -0.538634 38 33 34
-2.25429 -0.866318 7.79506 -0.555868 0.514316 -0.653062 40 34 34
-2.2417 -0.863191 7.78745 0.733343 0.187836 -0.653395 34 29 31
-1.44612 -0.875441 7.74597 0.389994 0.192584 -0.900453 17 15 23
-1.43436 -0.874512 7.74491 -0.116569 0.274666 -0.954448 20 18 24
-1.41976 -0.874423 7.74106 0.00224166 0.267838 -0.963461 36 30 32
-1.40713 -0.874214 7.74024 0.425379 0.231985 -0.874777 39 32 33
-1.38752 -0.873994 7.72095 -0.76591 0.185282 -0.615672 36 29 30
-0.765982 -0.878131 7.67275 -0.892657 0.16826 -0.418153 16 14 23
-4.24146 -1.14921 10.106 -0.567644 0.0839113 -0.818987 148 156 164
-4.24071 -1.16406 10.0846 -0.559738 0.132687 -0.817977 151 158 166
-4.2411 -1.16419 10.0856 -0.559719 0.134436 -0.817705 151 158 166
-4.2411 -1.16419 10.0856 -0.559719 0.134436 -0.817705 151 158 166
-4.21551 -1.1496 10.097 0.641678 0.34861 -0.683169 142 146 148
-4.19238 -1.15466 10.1233 0.919636 0.107155 -0.377873 86 89 89
-4.17038 -1.15907 10.1257 0.909313 0.204808 -0.362219 105 106 101
-2.77549 -0.838564 7.76806 -0.27702 0.825145 -0.492336 58 64 82
-2.78083 -0.830572 7.77404 0.106904 0.926838 -0.35992 57 63 81
-2.75452 -0.831565 7.7729 -0.109696 0.737399 -0.66649 56 62 78
-2.70142 -0.839614 7.79999 -0.0594162 0.838395 -0.541815 49 48 54
-2.59925 -0.819088 7.68237 0.333777 -0.193663 -0.922544 44 40 44
-2.56201 -0.82936 7.66399 0.814179 -0.312979 -0.489036 44 39 44
-2.53956 -0.828703 7.72868 0.507299 -0.478706 -0.716581 44 38 42
-2.54101 -0.841743 7.78852 0.818076 -0.300521 -0.490347 44 38 43
-2.48526 -0.825035 7.69905 -0.631768 -0.274094 -0.725081 43 37 40
-1.79681 -0.838906 7.64328 0.523198 0.645336 -0.556602 18 17 23
-1.742 -0.819788 7.52443 0.726286 -0.251148 -0.63987 19 18 24
-1.6451 -0.838218 7.62042 -0.247464 0.826421 -0.505756 17 16 22
-1.43917 -0.86452 7.75178 -0.164446 0.30789 -0.937103 17 15 23
-1.42764 -0.863757 7.74706 -0.084326 0.308762 -0.947394 26 23 27
-1.41472 -0.863588 7.7454 0.266573 0.328693 -0.906035 38 30 31
-0.779138 -0.881794 7.70906 -0.897116 0.0989833 -0.430564 32 26 29
-0.754762 -0.872794 7.66961 -0.87194 0.112574 -0.476495 13 11 22
-5.18223 -0.947056 9.05094 -0.39481 -0.286961 -0.872799 122 126 126
-5.19863 -0.956404 9.10809 -0.294949 -0.34451 -0.891245 123 127 128
-4.22418 -1.12977 10.0938 0.629231 0.32288 -0.706977 149 154 159
-4.19609 -1.13318 10.1179 0.643751 0.182172 -0.743235 87 91 92
-4.20655 -1.14733 10.1056 0.423865 0.420658 -0.802113 114 117 119
-4.18186 -1.14049 10.1355 0.618604 0.236209 -0.749356 93 95 92
-2.76667 -0.824163 7.76528 0.214274 0.831171 -0.513071 57 63 80
-2.59099 -0.799899 7.62784 0.394647 -0.575669 -0.716142 42 38 43
-2.5914 -0.800213 7.6292 0.373083 -0.523315 -0.766127 41 37 41
-2.59995 -0.816441 7.69984 0.146201 -0.662783 -0.7344 43 40 44
-2.59761 -0.815911 7.69687 0.135771 -0.697136 -0.703966 43 39 43
-2.56 -0.79466 7.60487 0.421084 -0.25707 -0.86983 40 36 39
-2.5447 -0.800662 7.61972 0.504234 -0.625091 -0.595827 40 37 40
