ply
format ascii 1.0
element vertex 690
property float x
property float y
property float z
property float nx
property float ny
property float nz
property uchar diffuse_red
property uchar diffuse_green
property uchar diffuse_blue
end_header
0.136892 0.352446 0.491628 -0.472351 -0.873934 -0.114563 78 84 91
0.132397 0.354285 0.48713 -0.222076 -0.892001 -0.393721 59 63 70
0.139971 0.352623 0.479096 -0.405234 -0.900232 -0.159273 155 160 165
0.145043 0.351576 0.469104 -0.405485 -0.902512 -0.145097 173 177 184
0.143176 0.351114 0.463725 -0.489579 -0.864357 -0.114891 173 177 183
0.201989 0.356447 0.491033 -0.31659 -0.858988 -0.40238 148 151 155
0.200631 0.359562 0.487119 -0.293034 -0.845713 -0.445982 144 146 150
0.200147 0.358787 0.492553 -0.228218 -0.900402 -0.370395 156 160 166
0.199379 0.360576 0.487928 -0.224151 -0.903656 -0.364914 144 146 151
0.198706 0.362571 0.489363 -0.164325 -0.927457 -0.335888 152 154 161
0.203652 0.358743 0.484901 -0.277275 -0.843111 -0.460741 148 150 154
0.379738 0.382503 0.51704 -0.491686 -0.363171 -0.791424 126 131 135
0.386306 0.380335 0.512672 -0.553897 -0.602037 -0.575108 141 145 151
0.397762 0.374955 0.496455 -0.500317 -0.374819 -0.780509 125 128 133
0.409031 0.377287 0.499968 -0.508002 -0.357105 -0.783843 116 117 119
0.416912 0.3716 0.499496 -0.619766 -0.432612 -0.654779 126 125 125
0.419132 0.37866 0.493442 -0.520534 -0.344609 -0.78121 116 116 115
0.422092 0.375306 0.4863 -0.590966 -0.578406 -0.562322 134 134 135
-0.577833 0.39856 0.748429 -0.537636 -0.0698242 -0.840281 113 110 101
-0.575287 0.390643 0.725896 -0.576893 -0.0400901 -0.815836 116 112 103
-0.566582 0.39011 0.725814 -0.588979 -0.108003 -0.800899 120 115 107
-0.558984 0.386494 0.720232 -0.589912 -0.0900844 -0.802427 121 117 106
-0.524704 0.357004 0.618483 -0.311758 -0.755188 -0.576626 107 101 88
-0.528919 0.353887 0.614544 -0.522535 -0.495752 -0.693677 109 102 92
-0.344127 0.40938 0.734224 0.1243 -0.943197 -0.308105 152 158 160
-0.374405 0.298313 0.387297 0.0837249 0.334156 -0.938792 86 82 78
-0.374442 0.29829 0.387515 0.0740536 0.332253 -0.940279 86 82 78
-0.372646 0.294052 0.366654 0.474954 0.326147 -0.817341 93 90 87
-0.372728 0.294052 0.367036 0.634264 0.287448 -0.717692 93 90 87
-0.336051 0.296291 0.372485 0.265173 0.315399 -0.911157 139 141 146
-0.326141 0.295557 0.37612 -0.231783 0.312871 -0.92108 149 155 163
-0.155033 0.286812 0.298906 -0.00334086 0.260585 -0.965445 195 207 217
-0.134813 0.285231 0.284862 -0.165493 0.000342682 -0.986211 178 189 199
-0.131335 0.280507 0.284681 -0.394102 0.31956 -0.861722 177 186 194
-0.122199 0.285074 0.282264 -0.173295 0.0788533 -0.981708 192 199 206
-0.125887 0.280428 0.281645 -0.426549 0.284513 -0.85855 179 187 195
-0.127444 0.285043 0.283401 -0.3311 0.1325 -0.934246 182 190 198
-0.107621 0.279574 0.272552 -0.00976139 0.282243 -0.959293 194 200 208
-0.106781 0.280946 0.273173 -0.190554 0.330821 -0.924255 193 200 208
-0.110543 0.283643 0.272129 0.0252685 0.29394 -0.95549 193 199 207
-0.102059 0.280228 0.272084 -0.341944 0.305321 -0.888737 151 160 169
-0.0866111 0.282856 0.267454 -0.242908 0.342822 -0.907452 136 137 142
-0.0839983 0.28034 0.264153 -0.296892 0.270897 -0.91568 135 136 140
-0.0783233 0.280086 0.261776 -0.201838 0.269035 -0.941744 130 131 135
-0.0727059 0.280015 0.26026 -0.304744 0.292135 -0.906525 132 133 138
-0.0672081 0.280157 0.258758 0.115907 0.244809 -0.962618 133 135 139
0.0796115 0.361928 0.492798 -0.245849 -0.94047 -0.234679 58 62 67
0.085388 0.360013 0.495573 -0.165552 -0.957738 -0.235225 59 63 70
0.110197 0.358728 0.493085 0.0963401 -0.923394 -0.371567 56 61 66
0.104995 0.359123 0.478256 -0.269005 -0.936412 -0.225319 55 60 67
0.101486 0.357619 0.474086 -0.223432 -0.95892 -0.174784 66 73 80
0.11263 0.360327 0.473438 -0.253214 -0.925607 -0.281307 54 59 64
0.117474 0.358321 0.481055 -0.221608 -0.940452 -0.257758 61 67 74
0.122054 0.357688 0.478185 -0.24485 -0.943024 -0.225286 61 66 73
0.120347 0.360087 0.476612 -0.129574 -0.928486 -0.34803 56 62 69
0.129599 0.357399 0.480011 -0.410155 -0.900843 -0.142319 71 76 82
0.128967 0.358341 0.482728 -0.504526 -0.857736 -0.098702 69 75 82
0.12696 0.356145 0.480593 -0.310016 -0.931456 -0.190472 66 71 78
0.129761 0.358575 0.473472 -0.5031 -0.859233 -0.0927815 92 98 105
0.134559 0.35529 0.476489 -0.439235 -0.888565 -0.132381 137 143 148
0.135943 0.357079 0.465949 -0.542821 -0.819165 -0.18524 169 174 179
0.141272 0.350425 0.458444 -0.441719 -0.841599 -0.310799 160 164 169
0.193415 0.369386 0.483251 -0.218449 -0.820362 -0.528476 127 128 126
0.199828 0.361445 0.482975 -0.281279 -0.839519 -0.464855 141 143 146
0.197381 0.362724 0.484908 -0.242919 -0.866589 -0.435906 140 141 143
0.197316 0.362855 0.484817 -0.239613 -0.868951 -0.433023 140 141 143
0.195152 0.366832 0.481939 -0.215894 -0.849461 -0.481462 140 142 141
0.20966 0.366077 0.47692 -0.335485 -0.85441 -0.396778 152 154 156
0.219199 0.367024 0.475892 -0.212626 -0.913388 -0.347148 148 150 153
0.376891 0.381379 0.506952 -0.533905 -0.541447 -0.649446 141 143 150
0.403472 0.382908 0.495586 -0.989292 -0.0456789 0.138619 113 114 113
-0.576431 0.408848 0.748819 -0.516087 0.00707567 -0.856507 99 98 90
-0.573134 0.399759 0.729648 -0.569331 -0.312928 -0.760223 114 111 102
-0.567746 0.400823 0.729546 -0.571635 -0.336066 -0.748527 116 112 103
-0.567951 0.40067 0.729073 -0.570618 -0.355953 -0.740063 116 112 103
-0.562803 0.39687 0.724958 -0.590673 -0.108193 -0.799624 119 115 107
-0.536236 0.36469 0.610183 -0.241732 -0.823817 -0.51273 111 102 88
-0.524715 0.359178 0.594283 -0.260065 -0.816107 -0.516076 87 81 70
-0.516359 0.360194 0.596482 -0.323127 -0.78286 -0.531714 99 94 85
-0.345548 0.413076 0.724459 -0.260995 -0.69265 -0.672397 137 137 136
-0.335258 0.415278 0.731514 0.00888556 -0.922141 -0.386751 146 152 153
-0.328677 0.416631 0.727293 0.0564129 -0.822204 -0.566391 150 155 157
-0.331079 0.306106 0.384236 -0.392383 0.2752 -0.877668 139 142 146
-0.272191 0.306281 0.357518 -0.33944 0.274905 -0.89956 185 194 202
-0.134444 0.28984 0.289777 -0.388221 0.346785 -0.85383 176 185 193
-0.129404 0.290055 0.287639 -0.354987 0.356352 -0.86429 179 187 195
-0.124065 0.290056 0.285104 -0.412834 0.289564 -0.863551 190 198 204
-0.0961915 0.283487 0.267325 -0.494053 0.355172 -0.793577 131 136 142
-0.0814244 0.286038 0.268554 -0.490418 0.168316 -0.855079 130 131 135
-0.0783064 0.290826 0.266833 -0.481493 0.211563 -0.850533 134 135 139
-0.0694495 0.285181 0.261621 -0.243659 0.288851 -0.925849 136 138 143
-0.0662712 0.290111 0.262624 -0.143046 0.303544 -0.942018 137 138 143
-0.0722358 0.289795 0.263226 -0.225281 0.23695 -0.945041 132 133 137
-0.0638637 0.28522 0.260246 -0.0939692 0.280093 -0.955363 137 138 142
0.0695472 0.368462 0.482125 -0.156709 -0.959689 -0.233322 62 66 70
0.074822 0.368195 0.479315 -0.298276 -0.904584 -0.304564 46 51 55
0.0804188 0.36667 0.481369 -0.125628 -0.960563 -0.248065 61 66 71
0.0800794 0.36709 0.476284 -0.130617 -0.951206 -0.279548 54 58 62
0.100052 0.366441 0.465758 -0.0747095 -0.936773 -0.34187 54 59 65
0.118254 0.363268 0.469684 -0.274423 -0.937587 -0.213593 59 65 72
0.115754 0.367743 0.471366 -0.38262 -0.905599 -0.183009 52 59 65
0.110864 0.364437 0.467138 -0.378338 -0.919404 -0.1075 69 77 85
0.11716 0.364042 0.457049 -0.347356 -0.924629 -0.156222 69 74 81
0.117425 0.363129 0.463628 -0.378668 -0.91506 -0.13884 64 70 78
0.122812 0.361468 0.460116 -0.347745 -0.924323 -0.157162 96 101 108
0.129163 0.353128 0.44305 -0.583113 -0.631202 -0.511433 170 174 179
0.124913 0.351537 0.43556 -0.690645 -0.697879 -0.189669 167 172 177
0.210004 0.374733 0.467851 -0.32614 -0.808454 -0.489934 138 139 142
0.21064 0.367281 0.469669 -0.79887 -0.504085 -0.328185 133 134 134
0.224663 0.367138 0.462533 -0.241956 -0.729217 -0.640078 136 137 137
-0.565765 0.404047 0.716171 -0.569244 -0.285519 -0.770999 94 92 86
-0.564786 0.408401 0.724632 -0.522328 -0.211013 -0.826225 107 104 94
-0.534842 0.364442 0.579932 -0.462465 -0.607098 -0.646187 105 96 83
-0.517491 0.366905 0.589903 -0.399504 -0.458341 -0.793927 88 82 72
-0.353045 0.419259 0.7208 -0.0015019 -0.824518 -0.565834 139 141 143
-0.352615 0.416981 0.717314 -0.0606811 -0.848409 -0.525851 139 141 142
-0.352298 0.317041 0.40086 -0.314612 0.406969 -0.857552 153 153 158
-0.351078 0.318126 0.402085 -0.181292 0.352923 -0.917921 168 170 177
-0.350303 0.314826 0.394843 -0.347801 0.497803 -0.794498 140 141 146
-0.32869 0.316428 0.386192 -0.376719 0.399527 -0.83574 142 143 148
-0.32735 0.311016 0.382587 -0.282351 0.352414 -0.892235 152 155 161
-0.323482 0.316353 0.383505 -0.269556 0.359941 -0.893187 155 160 168
-0.322861 0.316479 0.38421 -0.385309 0.330045 -0.861747 149 154 162
-0.184716 0.304769 0.319301 -0.32149 0.586453 -0.74345 189 192 198
-0.110249 0.294869 0.274819 -0.519051 0.376039 -0.767581 181 185 192
-0.0689298 0.294917 0.264549 -0.274161 0.310369 -0.910223 135 136 141
-0.063032 0.295736 0.265559 0.316966 0.218498 -0.922925 128 129 133
-0.0527971 0.29822 0.261414 -0.3365 0.306072 -0.890555 78 80 82
-0.0531207 0.292866 0.256839 -0.673057 0.315929 -0.668718 76 79 81
0.0746761 0.369294 0.473303 -0.19859 -0.947865 -0.249226 55 60 64
0.0732141 0.371065 0.469639 -0.25445 -0.914661 -0.314086 49 54 57
0.113026 0.356739 0.430899 -0.947259 -0.297437 -0.119295 165 168 171
0.202341 0.376454 0.462007 -0.378583 -0.861021 -0.339584 130 130 130
0.205935 0.378594 0.465614 -0.304658 -0.822999 -0.479434 134 135 134
0.209519 0.377145 0.462979 -0.276891 -0.806715 -0.522056 140 141 142
-0.576156 0.418555 0.748841 -0.473147 0.0501578 -0.879555 82 83 76
-0.568946 0.417499 0.726068 -0.558637 -0.171157 -0.811561 111 108 98
-0.562089 0.411251 0.710705 -0.520458 -0.206458 -0.828552 114 111 102
-0.563629 0.411634 0.72067 -0.521547 0.129988 -0.843263 101 98 88
-0.544535 0.366091 0.567478 -0.452467 -0.371009 -0.810941 85 80 70
-0.538161 0.369498 0.569741 -0.548987 -0.296205 -0.781586 101 94 82
-0.434528 0.432832 0.742103 -0.241597 -0.931131 -0.273177 142 144 142
-0.392482 0.426494 0.717782 -0.394259 -0.624927 -0.673815 132 133 131
-0.364619 0.423636 0.710812 0.00308676 -0.716268 -0.697819 141 142 143
-0.368367 0.430313 0.715156 0.0580451 -0.706764 -0.705064 142 143 145
-0.35175 0.429034 0.708377 0.000652373 -0.801035 -0.598617 148 150 150
-0.348792 0.426558 0.715127 0.0605074 -0.839354 -0.540206 138 139 138
-0.352766 0.431408 0.712189 0.122717 -0.901325 -0.415396 148 150 151
-0.353042 0.425429 0.715898 -0.0387749 -0.978569 -0.202236 145 149 150
-0.349752 0.324985 0.402881 -0.355015 0.30515 -0.883656 150 151 155
-0.32126 0.327087 0.388389 -0.446824 0.36745 -0.815677 153 157 165
-0.321539 0.326995 0.388303 -0.433351 0.369796 -0.821862 153 157 165
-0.0656576 0.299771 0.265248 -0.184482 0.274094 -0.943843 137 138 143
-0.068152 0.305288 0.26869 -0.350988 0.230059 -0.907678 136 137 142
-0.0622692 0.306458 0.270206 -0.143744 0.288554 -0.946612 136 137 141
-0.0566098 0.305331 0.266787 -0.491922 0.303666 -0.815966 111 111 115
0.06286 0.372494 0.452167 -0.188461 -0.93428 -0.302661 61 67 72
0.0637727 0.376548 0.455308 0.0290537 -0.92745 -0.372817 45 49 54
0.0731928 0.372717 0.464075 -0.281706 -0.899689 -0.333469 48 52 56
0.0664166 0.37334 0.462312 -0.447921 -0.823916 -0.347172 42 46 49
0.0699162 0.376518 0.45223 -0.115772 -0.944403 -0.307734 52 56 61
0.0778702 0.373172 0.452722 -0.165443 -0.941694 -0.292987 84 88 92
0.0832705 0.373821 0.450376 -0.0721706 -0.948466 -0.308551 64 67 72
0.195056 0.385051 0.454057 -0.640346 -0.734753 -0.223817 147 151 154
-0.568448 0.42693 0.727409 -0.561395 -0.220294 -0.797688 101 97 88
-0.573011 0.426206 0.726011 -0.557167 -0.174736 -0.811808 96 92 82
-0.566231 0.425726 0.725655 -0.547795 -0.115676 -0.828577 105 100 91
-0.564965 0.419248 0.709836 -0.55904 -0.186076 -0.807991 105 101 92
-0.548783 0.372415 0.562615 -0.466373 -0.343649 -0.815108 78 74 67
-0.545085 0.37473 0.567731 -0.406455 -0.480375 -0.777197 74 71 64
-0.540592 0.378456 0.569077 -0.377238 -0.54595 -0.748084 65 63 58
-0.536441 0.377834 0.568137 -0.382573 -0.536574 -0.752147 67 65 60
-0.517634 0.409648 0.656889 0.175667 -0.105452 -0.978785 119 115 103
-0.390963 0.431751 0.71144 -0.187498 -0.76306 -0.618533 157 160 161
-0.375712 0.431811 0.691038 -0.227489 -0.955836 -0.186081 134 133 129
-0.380805 0.434513 0.700869 -0.375321 -0.753004 -0.54048 143 144 144
-0.323279 0.332016 0.389008 -0.3496 0.313499 -0.882892 157 160 167
-0.134287 0.310765 0.295029 -0.56837 0.468024 -0.67669 166 167 171
-0.108772 0.31297 0.285771 -0.195987 0.302855 -0.932667 201 205 215
-0.0590619 0.31177 0.272136 0.210682 0.189957 -0.958921 123 124 127
0.0722427 0.379375 0.436194 -0.276365 -0.892333 -0.356881 47 51 56
0.189132 0.389432 0.452562 -0.635217 -0.697326 -0.332018 138 140 139
0.190503 0.388033 0.434314 -0.136104 -0.827418 -0.544843 139 140 142
0.19034 0.387999 0.432949 -0.137901 -0.826966 -0.545078 139 140 142
0.203663 0.388875 0.449166 -0.469023 -0.851235 -0.235405 165 170 177
-0.571135 0.435072 0.725907 -0.558032 -0.174675 -0.811227 99 95 86
-0.569259 0.435833 0.724004 -0.284891 -0.323626 -0.902277 119 111 97
-0.537069 0.378501 0.545775 -0.386169 -0.573262 -0.722664 68 64 59
-0.52807 0.415285 0.65135 0.154098 0.0979956 -0.983184 71 69 61
-0.521132 0.417128 0.655315 0.243153 0.0587064 -0.96821 89 85 76
-0.526383 0.4091 0.654023 0.136666 0.0845038 -0.987006 87 83 74
-0.39677 0.43484 0.692729 -0.141681 -0.914845 -0.378135 152 156 155
-0.386124 0.434059 0.691493 -0.0642665 -0.974683 -0.214158 142 143 142
-0.382354 0.436703 0.683206 -0.133014 -0.939355 -0.3161 136 135 130
-0.343527 0.344517 0.404321 -0.52215 0.306569 -0.795848 147 148 154
-0.32115 0.34339 0.395787 -0.531462 0.404865 -0.744065 149 151 157
-0.323641 0.338356 0.393602 -0.422306 0.425154 -0.800563 147 149 155
-0.162078 0.322692 0.311067 -0.273709 0.427428 -0.86162 185 192 202
-0.121602 0.322822 0.296341 -0.347865 0.454671 -0.819917 196 199 207
-0.113118 0.321214 0.28763 -0.232157 -0.0337537 -0.972092 177 180 186
-0.109674 0.317018 0.287473 -0.519197 0.241849 -0.819722 178 180 183
-0.0974913 0.32399 0.287465 -0.768184 0.297287 -0.567021 172 178 184
-0.0877691 0.315837 0.27515 -0.412625 0.354022 -0.839291 107 109 110
-0.0673284 0.314026 0.269683 -0.21477 0.281984 -0.935072 140 141 146
-0.0616368 0.315429 0.270119 -0.239721 0.315562 -0.918126 137 138 143
-0.0583448 0.320213 0.270641 -0.0662557 0.292676 -0.953913 132 132 135
-0.0523498 0.320042 0.26985 -0.47879 0.309618 -0.821521 98 99 102
-0.0458264 0.320355 0.267159 -0.431403 0.318282 -0.844149 75 72 74
0.190209 0.392828 0.434905 -0.315734 -0.877042 -0.36209 146 149 151
0.380768 0.396999 0.401082 -0.295361 -0.943442 -0.150595 171 174 183
-0.589823 0.448825 0.734354 -0.324518 -0.762663 -0.559494 92 87 75
-0.580452 0.44057 0.716851 -0.293456 -0.34258 -0.892481 83 80 73
-0.580407 0.442267 0.725253 -0.397583 -0.78974 -0.46716 78 77 71
-0.575399 0.442113 0.714504 -0.539543 -0.545356 -0.641467 97 92 82
-0.534842 0.383366 0.551574 -0.498702 -0.540027 -0.677988 59 59 58
-0.514361 0.419258 0.656615 -0.102385 -0.263522 -0.959205 104 101 89
-0.50834 0.376806 0.523524 -0.574636 -0.231364 -0.785025 84 80 74
-0.403321 0.439989 0.683657 -0.125545 -0.847384 -0.515925 152 155 153
-0.403344 0.442637 0.67746 -0.137728 -0.919622 -0.367866 143 145 144
-0.41112 0.440386 0.670245 0.0671368 -0.899308 -0.432131 151 155 153
-0.396609 0.441065 0.686078 -0.0442058 -0.917189 -0.395991 151 154 151
-0.397139 0.442163 0.680177 -0.0649535 -0.884813 -0.461398 150 152 149
-0.397348 0.440706 0.674671 -0.0327806 -0.945629 -0.323591 140 142 139
-0.377654 0.424728 0.617654 -0.0540895 -0.767311 -0.638989 125 122 113
-0.317549 0.348599 0.395823 -0.504112 0.361001 -0.78457 147 151 158
-0.203161 0.336461 0.340403 -0.502657 0.268573 -0.821708 190 199 206
-0.122314 0.335226 0.305624 -0.0991363 0.312672 -0.944674 200 204 211
-0.121681 0.335672 0.307754 0.0202268 0.293339 -0.955794 188 191 198
-0.121685 0.335678 0.307778 0.0248086 0.295082 -0.95515 188 191 198
-0.121685 0.335678 0.307778 0.0248086 0.295082 -0.95515 188 191 198
-0.102439 0.32968 0.287726 -0.0736129 0.284069 -0.955974 197 202 209
-0.0550721 0.326186 0.274046 -0.401373 0.362209 -0.841252 120 120 123
0.177083 0.39272 0.402577 -0.44704 -0.859361 -0.248304 132 135 137
0.396311 0.404054 0.392539 -0.918333 -0.346953 0.190493 157 159 164
0.384601 0.38286 0.34699 -0.953777 0.297165 0.0447461 120 121 121
-0.580091 0.44809 0.717569 -0.445525 -0.738903 -0.5055 74 74 68
-0.583531 0.450363 0.722505 -0.52669 0.147637 -0.837138 109 102 87
-0.5714 0.448126 0.715852 -0.298462 -0.335238 -0.893608 80 77 69
-0.575225 0.450609 0.71146 -0.54552 -0.528743 -0.650261 76 74 66
-0.560995 0.447496 0.697933 -0.559914 -0.482014 -0.673913 73 71 63
-0.504456 0.383463 0.518985 -0.569029 -0.32192 -0.756686 80 78 73
-0.498738 0.383449 0.517662 -0.573273 -0.310743 -0.758154 67 68 65
-0.498069 0.386687 0.529122 -0.581982 -0.16599 -0.796081 82 80 74
-0.484469 0.428914 0.649784 -0.00342131 -0.0904252 -0.995897 113 108 92
-0.484757 0.429137 0.64997 0.00603369 -0.0772895 -0.99699 113 108 92
-0.413378 0.447603 0.667191 -0.129006 -0.90918 -0.395916 143 145 143
-0.375994 0.430044 0.619452 -0.0350453 -0.850769 -0.524371 127 125 116
-0.361531 0.347115 0.38362 0.424402 0.118581 -0.897676 103 99 98
-0.203752 0.347878 0.343157 -0.340578 0.147996 -0.928495 201 209 215
-0.155317 0.344143 0.317055 -0.15755 0.396698 -0.904328 188 197 205
-0.14889 0.343952 0.31498 -0.201359 0.349294 -0.915122 195 202 210
-0.0645455 0.332333 0.275086 -0.174065 0.301107 -0.937569 134 134 139
-0.0588326 0.334579 0.275887 -0.257767 0.32877 -0.908552 137 137 140
-0.0412037 0.336096 0.271375 -0.220636 0.341405 -0.913653 64 66 68
0.0718615 0.383827 0.395797 -0.323693 -0.837812 -0.439651 52 59 66
0.0757233 0.392439 0.403088 -0.709093 -0.702781 0.0573311 52 60 68
0.0928773 0.378492 0.369931 -0.634772 -0.772698 0.00126857 189 193 199
0.0951442 0.378166 0.36451 -0.423895 -0.873871 -0.23804 170 174 179
0.172545 0.403465 0.418455 -0.367891 -0.923066 -0.112273 176 182 191
0.172764 0.4055 0.414904 -0.386547 -0.919203 -0.0751457 183 189 198
0.170343 0.392226 0.389476 -0.270861 -0.894483 -0.355716 153 156 159
0.388056 0.404811 0.374417 -0.822373 -0.567519 0.0403142 151 153 156
0.378435 0.405112 0.370334 -0.402373 -0.902593 -0.153046 167 170 176
-0.54509 0.444267 0.68268 -0.195082 -0.462251 -0.865024 120 115 100
-0.552146 0.446355 0.678352 -0.525144 -0.606513 -0.596964 91 88 78
-0.495233 0.44142 0.653049 -0.0185703 -0.118027 -0.992837 96 94 84
-0.42827 0.452342 0.658341 -0.0450491 -0.957503 -0.284883 154 155 150
-0.418912 0.449995 0.658685 -0.0620951 -0.928709 -0.365573 150 152 149
-0.387905 0.434132 0.602292 0.00799571 -0.83554 -0.549371 132 133 127
-0.382328 0.432725 0.610307 -0.238803 -0.909226 -0.341001 122 119 110
-0.380349 0.432948 0.609053 -0.317723 -0.860736 -0.397726 122 118 108
-0.377985 0.40614 0.528424 0.361812 -0.682527 -0.635019 130 124 115
-0.371705 0.409703 0.525999 0.466891 -0.742503 -0.480316 123 120 113
-0.294969 0.363439 0.390619 0.00413458 0.3383 -0.941029 194 205 215
-0.174999 0.349811 0.329265 -0.51817 0.280573 -0.807947 170 179 186
-0.165021 0.354854 0.328049 -0.39226 0.317936 -0.863162 173 182 192
-0.169384 0.349849 0.326262 -0.439205 0.266898 -0.857825 177 185 192
-0.126866 0.349441 0.312346 -0.048885 0.239742 -0.969605 191 194 203
-0.12055 0.349451 0.310534 0.242453 0.321432 -0.915368 188 192 199
-0.101289 0.339885 0.290779 -0.145275 0.315441 -0.937759 197 200 208
-0.103409 0.343796 0.288843 0.18701 0.292981 -0.937651 194 197 204
-0.0948755 0.341147 0.292712 -0.818367 0.278368 -0.502778 160 166 171
-0.0553083 0.340671 0.277051 -0.214052 0.343956 -0.914262 132 131 134
-0.0579763 0.345336 0.278744 -0.209734 0.336069 -0.918188 136 136 139
-0.0493973 0.341164 0.27572 -0.212767 0.344091 -0.914512 90 90 92
-0.0492565 0.340586 0.275456 -0.231354 0.3483 -0.908384 88 88 90
-0.0497476 0.341217 0.276242 -0.252382 0.335395 -0.907642 93 93 95
-0.043571 0.341856 0.276731 -0.0276826 0.316053 -0.948338 66 68 70
-0.0460165 0.346445 0.277554 -0.101302 0.308124 -0.945937 73 74 75
0.0673915 0.39195 0.390953 -0.358967 -0.822257 -0.44163 54 61 69
0.0755081 0.390952 0.392442 -0.614386 -0.752837 -0.236151 60 66 72
0.0727987 0.395111 0.385098 -0.599463 -0.611986 -0.515866 55 60 66
0.0748882 0.392011 0.379294 -0.667686 -0.74303 0.0458455 67 74 80
0.0851581 0.384622 0.357449 -0.40733 -0.906361 -0.112214 171 174 179
0.08355 0.381959 0.365857 -0.455452 -0.881588 -0.123964 186 190 196
0.0874491 0.37916 0.356329 -0.485231 -0.86582 -0.122093 190 195 201
0.087682 0.380166 0.349371 -0.391532 -0.890709 -0.230955 177 182 187
0.087661 0.380143 0.349389 -0.391822 -0.890745 -0.230323 177 182 187
0.0923075 0.38201 0.34638 -0.63449 -0.718639 -0.284572 182 187 193
0.174518 0.405377 0.4108 -0.452245 -0.859451 -0.238364 150 153 158
0.373279 0.412663 0.368829 -0.242815 -0.957933 -0.152989 161 167 177
0.376662 0.409639 0.375919 -0.340154 -0.935616 -0.094435 173 176 183
0.381112 0.410848 0.360196 -0.768047 -0.638758 0.0457496 157 158 162
0.385212 0.40824 0.350201 -0.855259 -0.504118 0.119987 128 129 131
0.388641 0.40069 0.349657 -0.924051 -0.299249 0.237866 120 122 124
0.387006 0.404259 0.343003 -0.867217 -0.471393 0.160385 119 120 122
-0.428274 0.454036 0.652255 -0.09098 -0.926631 -0.364798 150 152 150
-0.424107 0.455877 0.648491 -0.452671 -0.872499 -0.183941 141 142 139
-0.422548 0.453398 0.655022 -0.07797 -0.934207 -0.348106 150 152 149
-0.418504 0.455209 0.644924 -0.272098 -0.90595 -0.324373 132 132 126
-0.422567 0.454287 0.649093 -0.0027464 -0.928478 -0.371379 140 142 138
-0.378752 0.412055 0.520296 0.375911 -0.848877 -0.371616 124 119 111
-0.373202 0.414894 0.517636 0.330172 -0.869997 -0.366184 115 111 107
-0.360094 0.371493 0.414188 0.71246 0.045038 -0.700266 102 99 96
-0.332261 0.382058 0.427879 -0.485795 0.319491 -0.81359 165 167 175
-0.317751 0.371866 0.398711 -0.0609521 0.31277 -0.947871 158 161 168
-0.100539 0.350517 0.296115 -0.23537 0.330569 -0.913961 194 198 204
-0.101414 0.356369 0.299353 -0.165975 0.302411 -0.938616 195 198 205
-0.0606325 0.350252 0.280865 -0.21166 0.324947 -0.921743 132 131 135
-0.0545309 0.350447 0.279875 -0.0814267 0.329612 -0.940598 131 131 133
-0.0490895 0.351563 0.279168 -0.25998 0.331825 -0.906809 102 102 104
-0.0483624 0.350896 0.280115 0.359291 0.228019 -0.904941 91 91 93
-0.0409108 0.346416 0.274454 -0.116856 0.303054 -0.945782 54 56 58
0.0507328 0.400584 0.384704 0.257078 -0.876729 -0.406519 54 60 69
0.0548432 0.39878 0.381999 -0.287744 -0.883854 -0.368789 54 60 68
0.057893 0.396675 0.375891 -0.589469 -0.798853 -0.119836 58 65 71
0.0669339 0.397342 0.371111 -0.636359 -0.771337 -0.00924951 60 67 73
0.0661933 0.399413 0.377326 -0.551015 -0.822613 -0.140321 55 61 67
0.071285 0.392292 0.361036 -0.213581 -0.958679 -0.187929 66 72 79
0.0773698 0.392113 0.357176 -0.144671 -0.965733 -0.215478 131 137 144
0.0824079 0.390492 0.352086 -0.278106 -0.947951 -0.155066 169 173 179
0.0751341 0.381846 0.342672 -0.615596 -0.76413 -0.192736 182 186 192
0.0828625 0.391143 0.359633 -0.137276 -0.96709 -0.214223 160 166 172
0.0774262 0.385041 0.337266 -0.547198 -0.81 -0.21089 189 195 202
0.0848304 0.386535 0.343727 -0.458383 -0.886114 -0.0684591 189 193 199
0.381026 0.415303 0.351194 -0.779027 -0.626568 0.0230242 157 159 162
0.383706 0.411779 0.343528 -0.82954 -0.544119 0.125689 130 131 133
0.385006 0.407641 0.336132 -0.835181 -0.530083 0.146579 118 120 120
-0.437065 0.45571 0.635576 -0.0233283 -0.843258 -0.537002 148 150 148
-0.428851 0.460285 0.633576 -0.306543 -0.921529 -0.238362 137 137 132
-0.430375 0.462143 0.648617 -0.114433 -0.847824 -0.517783 135 140 139
-0.424275 0.460431 0.630042 -0.392626 -0.897178 -0.20228 130 129 121
-0.341263 0.383005 0.422833 -0.241207 0.375429 -0.894914 157 156 161
-0.341524 0.385714 0.421284 -0.505027 0.395873 -0.766963 145 145 150
-0.338923 0.38746 0.422587 -0.356615 0.409712 -0.83962 151 151 157
-0.31671 0.381379 0.400194 0.00645922 0.265315 -0.96414 165 167 175
-0.098668 0.356382 0.294966 0.00522576 0.301877 -0.953333 194 198 204
-0.0512692 0.3567 0.282551 -0.144646 0.241636 -0.959526 122 121 123
-0.0539799 0.361528 0.283376 -0.171203 0.303085 -0.937459 130 129 131
-0.0451227 0.356707 0.281095 -0.133407 0.296955 -0.945526 80 79 82
-0.0404695 0.356623 0.276804 -0.382053 0.298071 -0.874751 66 67 69
-0.0409629 0.361916 0.284198 0.37839 0.229637 -0.896709 58 59 62
0.0434443 0.404128 0.380584 0.181755 -0.781011 -0.597484 53 59 68
0.046765 0.396754 0.363419 -0.157515 -0.981164 -0.111836 63 69 76
0.0532617 0.399869 0.359371 -0.239444 -0.962223 -0.12959 64 70 76
0.0679814 0.397553 0.366278 -0.533647 -0.845551 0.0162306 69 77 84
0.0664438 0.396058 0.357044 -0.448554 -0.893032 -0.0359668 69 76 83
0.0659724 0.395733 0.350297 -0.219126 -0.965305 -0.142023 74 81 89
0.0747811 0.396549 0.350927 -0.476592 -0.878686 -0.0277707 116 122 129
0.0753728 0.396463 0.343792 -0.416532 -0.90704 -0.0614803 165 171 178
0.080495 0.394249 0.347149 -0.373401 -0.924244 -0.079654 182 187 193
0.0719597 0.39013 0.332971 -0.34198 -0.912227 -0.225591 189 195 202
0.0776112 0.389469 0.33003 -0.415832 -0.898246 -0.142259 193 198 203
0.141658 0.413486 0.393421 -0.187518 -0.897559 -0.399029 149 150 154
0.1455 0.41891 0.397934 -0.271464 -0.908456 -0.317828 145 146 147
0.150221 0.419963 0.394442 -0.28826 -0.926827 -0.24062 170 174 180
0.377929 0.418542 0.343655 -0.783392 -0.612171 0.107443 158 159 163
0.378923 0.414358 0.335895 -0.757358 -0.649393 0.0685416 132 133 135
-0.452842 0.465482 0.62735 -0.0187311 -0.923408 -0.383363 129 132 130
-0.451869 0.46161 0.63405 -0.183466 -0.933513 -0.308049 122 121 116
-0.43409 0.462352 0.631464 -0.328046 -0.915199 -0.234089 134 136 132
-0.433845 0.461891 0.631104 -0.214276 -0.919808 -0.328692 133 135 131
-0.439029 0.464255 0.628773 -0.337338 -0.925547 -0.171947 134 136 133
-0.429203 0.4625 0.627544 -0.347258 -0.908987 -0.230553 130 129 122
-0.434058 0.463848 0.625191 -0.314592 -0.930859 -0.185834 131 132 127
-0.344336 0.394673 0.427646 0.0520281 0.270849 -0.961215 150 149 152
-0.34461 0.394876 0.427676 0.0540789 0.27584 -0.959681 149 149 151
-0.335161 0.397754 0.431071 0.0753679 0.265481 -0.961166 144 145 150
-0.300923 0.390656 0.403762 -0.424365 0.343097 -0.837973 199 208 219
-0.288156 0.391188 0.399547 0.0149646 0.405585 -0.913935 191 205 214
-0.239143 0.386193 0.374319 -0.121594 0.457161 -0.881033 179 189 200
-0.221671 0.379184 0.364274 -0.168042 0.455085 -0.874448 205 210 217
-0.177569 0.378123 0.342282 -0.37 0.274907 -0.887427 195 208 217
-0.133133 0.377582 0.324997 -0.258682 0.409795 -0.87473 173 181 190
-0.118712 0.370923 0.317579 0.29752 0.261303 -0.918261 183 185 190
-0.118461 0.370943 0.31773 0.289199 0.261058 -0.920985 183 185 190
-0.112756 0.371411 0.317661 -0.324057 -0.252178 -0.911808 188 190 196
-0.107162 0.372689 0.318267 -0.541834 -0.290215 -0.788791 177 178 179
-0.0901738 0.365927 0.298131 -0.774921 0.31149 -0.549974 151 155 159
-0.0917431 0.370448 0.303429 -0.722638 0.313914 -0.615834 174 177 182
-0.0567409 0.36664 0.285427 -0.281349 0.312322 -0.907357 129 128 131
-0.0506699 0.36683 0.284918 -0.0481231 0.283664 -0.957715 125 124 127
-0.04441 0.366998 0.285143 0.351306 0.214118 -0.911448 81 81 83
-0.0407155 0.372227 0.287439 0.3598 0.244853 -0.900328 63 64 65
-0.0353524 0.372056 0.286317 0.0858919 0.122561 -0.988737 50 53 55
0.0495673 0.402323 0.34716 -0.370597 -0.928114 -0.0355244 69 76 82
0.0505356 0.398351 0.333332 -0.406287 -0.886291 -0.222306 68 74 82
0.0570057 0.398191 0.334507 -0.340017 -0.937081 -0.0791706 76 83 90
0.0647423 0.396879 0.343843 0.0673515 -0.950829 -0.302305 69 76 85
0.0645609 0.40135 0.33727 -0.433556 -0.898671 -0.0664883 80 87 93
0.0700481 0.399324 0.333621 -0.394716 -0.914924 -0.0843437 154 160 166
0.0676875 0.393652 0.32764 -0.33799 -0.914011 -0.22438 179 184 189
0.0753432 0.395938 0.330734 -0.460231 -0.887615 0.0180886 192 199 204
0.0751843 0.397952 0.330274 -0.39379 -0.916055 -0.0759776 173 178 183
0.0727407 0.392799 0.325997 -0.42586 -0.89488 -0.133542 175 179 184
0.0718361 0.389536 0.324429 -0.452372 -0.884433 -0.114623 185 189 194
0.144073 0.425803 0.398419 -0.179912 -0.890723 -0.417426 111 110 106
0.364395 0.422595 0.340424 -0.790621 -0.603911 0.10105 162 165 170
0.379021 0.428735 0.357107 -0.348575 -0.692509 -0.631606 128 132 137
0.371093 0.423352 0.345133 -0.864538 -0.495587 -0.0834766 154 156 160
0.372997 0.420886 0.335641 -0.805491 -0.577738 0.131923 158 160 164
0.371092 0.424402 0.327631 -0.765287 -0.619998 0.173029 164 166 171
0.373169 0.418581 0.317599 -0.767184 -0.623628 0.150055 123 124 126
0.375625 0.417294 0.327854 -0.838399 -0.492997 0.232468 133 134 136
-0.461941 0.471348 0.618409 0.00701962 -0.926693 -0.375753 128 131 129
-0.443726 0.467356 0.61375 -0.364988 -0.911726 -0.188521 129 130 125
-0.443621 0.467349 0.613755 -0.36344 -0.912922 -0.185703 129 130 125
-0.443916 0.467441 0.613803 -0.351765 -0.914615 -0.199354 129 130 125
-0.439832 0.469621 0.60969 -0.250222 -0.950677 -0.18331 126 126 120
-0.353355 0.39895 0.42659 0.277149 0.258756 -0.925329 80 78 76
-0.350946 0.405537 0.430208 0.0719906 0.250198 -0.965515 85 83 82
-0.353238 0.398862 0.426658 0.276656 0.258982 -0.925413 80 78 76
-0.344298 0.405609 0.430448 0.0372284 0.29797 -0.953849 147 145 147
-0.348018 0.4005 0.429487 0.0010072 0.278419 -0.960459 103 102 103
-0.309512 0.395876 0.409431 -0.286226 0.340645 -0.895564 154 160 170
-0.279778 0.401684 0.402259 -0.435538 0.539862 -0.720316 171 185 197
-0.238016 0.397122 0.380709 -0.219631 0.42966 -0.875874 190 198 209
-0.201614 0.389567 0.354791 -0.198141 0.37956 -0.9037 208 213 219
-0.201614 0.389567 0.354791 -0.198141 0.37956 -0.9037 208 213 219
-0.179899 0.38426 0.346502 -0.555173 0.199909 -0.807353 185 198 209
-0.125283 0.384989 0.320197 -0.24097 0.499652 -0.832034 170 176 184
-0.118678 0.384877 0.317889 -0.301345 0.422532 -0.854785 172 176 184
-0.110309 0.379658 0.31309 -0.253486 0.366882 -0.895066 195 197 203
-0.104987 0.379926 0.310351 -0.326099 0.450456 -0.831113 189 191 196
-0.0969584 0.376891 0.302156 -0.126438 0.317149 -0.93991 193 196 202
-0.0538554 0.372381 0.287583 -0.273312 0.319594 -0.907282 130 128 131
-0.0534016 0.372336 0.287733 -0.281672 0.254637 -0.925106 126 124 126
-0.050118 0.377074 0.286683 0.25664 0.249571 -0.933729 123 122 125
-0.0518015 0.379154 0.28816 -0.0366903 0.314402 -0.948581 130 128 131
-0.0474485 0.372122 0.286444 0.0931853 0.299359 -0.949579 114 113 115
0.0753067 0.394773 0.313783 -0.308079 -0.93847 -0.156085 185 190 196
0.370156 0.421283 0.310529 -0.751782 -0.639119 0.162329 127 130 132
-0.441673 0.417349 0.473506 0.499885 -0.0776684 -0.862602 109 103 91
-0.433795 0.422695 0.479118 -0.31101 -0.803838 -0.507068 111 107 100
-0.303793 0.404613 0.410465 -0.127105 0.382657 -0.915105 164 173 182
-0.300007 0.409916 0.411544 -0.175791 0.392465 -0.902812 183 194 205
-0.211203 0.398539 0.372791 -0.517008 -0.231977 -0.823947 210 215 221
-0.202914 0.400225 0.369423 0.102652 -0.0974967 -0.989928 211 216 221
-0.20314 0.400226 0.369003 0.0998677 -0.0907682 -0.990852 211 216 221
-0.195989 0.396944 0.361709 0.268929 0.324246 -0.906941 199 207 213
-0.189941 0.400381 0.360813 -0.350693 0.405674 -0.844063 188 197 206
-0.18456 0.401022 0.35927 -0.38008 0.392852 -0.837381 180 191 202
-0.125569 0.389352 0.322586 -0.311791 0.452334 -0.835572 166 172 180
-0.120407 0.389925 0.321047 -0.253959 0.420991 -0.870788 167 172 179
-0.109088 0.390605 0.318198 -0.119052 0.38606 -0.914759 191 193 199
-0.113839 0.390003 0.319361 -0.212358 0.371108 -0.903982 179 183 189
-0.102848 0.389874 0.313805 -0.4705 0.456848 -0.754931 179 179 181
-0.0997408 0.386149 0.312104 -0.486567 0.282996 -0.826538 178 180 185
0.0024397 0.41046 0.341816 -0.237065 -0.967008 -0.0932559 104 109 119
0.0206255 0.407555 0.33571 -0.168348 -0.9722 -0.162746 81 86 95
-0.127407 0.25352 -0.0287569 -0.583659 -0.794943 -0.165556 127 134 139
0.344214 0.432896 0.320623 -0.696208 -0.601766 -0.391373 170 175 182
0.360469 0.430365 0.303388 -0.77028 -0.605307 0.20068 162 165 170
0.36077 0.430282 0.303169 -0.787291 -0.582703 0.201571 162 165 169
0.366881 0.423894 0.303486 -0.77192 -0.605587 0.193403 124 127 129
-0.502439 0.430577 0.501126 -0.241863 -0.564162 -0.789445 100 92 78
-0.413052 0.42805 0.464156 -0.231194 -0.844026 -0.48391 88 74 68
-0.163097 0.405454 0.354098 -0.488654 -0.455641 -0.744049 179 187 196
-0.125425 0.401594 0.329823 -0.201926 0.378159 -0.90345 190 196 202
-0.085804 0.394473 0.308697 -0.728935 0.265621 -0.630951 155 158 160
-0.0731809 0.399258 0.307568 -0.187571 0.284644 -0.940104 132 131 135
-0.0747708 0.392286 0.305385 -0.155004 0.320247 -0.934567 131 131 135
0.0296769 0.415901 0.331762 -0.387322 0.276259 -0.879581 170 179 199
0.107501 0.442003 0.378621 -0.0879509 -0.908514 -0.408495 131 135 140
0.338159 0.438415 0.306501 -0.664509 -0.665215 -0.340465 178 183 191
0.342525 0.436253 0.312603 -0.680796 -0.636298 -0.362824 159 163 167
0.350909 0.435546 0.301806 -0.639585 -0.768716 -0.00250396 164 167 173
0.354451 0.433064 0.30888 -0.641561 -0.76704 0.00696385 164 167 172
0.356877 0.43324 0.295574 -0.72441 -0.674088 0.144349 163 166 171
-0.421888 0.432769 0.463926 -0.244836 -0.864076 -0.439804 77 57 59
-0.352128 0.424307 0.417799 -0.205796 -0.945314 -0.253038 87 59 66
-0.138667 0.411469 0.338285 -0.439401 -0.407086 -0.800754 153 161 172
-0.105459 0.406855 0.320495 -0.440662 0.306624 -0.843682 169 173 179
-0.0965741 0.401411 0.315668 -0.385538 0.165868 -0.907661 188 191 197
-0.0781453 0.40163 0.309329 -0.113237 0.277122 -0.954139 128 129 135
-0.0781912 0.401413 0.308545 -0.238086 0.2894 -0.927126 128 129 135
-0.0660001 0.399499 0.300833 -0.271367 0.399082 -0.875838 133 130 133
-0.0577771 0.406592 0.302909 -0.241209 0.376436 -0.894491 128 124 127
0.00579995 0.432354 0.351152 -0.0997135 0.460368 -0.88211 143 148 165
0.013494 0.431141 0.348008 -0.0911311 0.513311 -0.85335 145 152 168
0.0275016 0.42265 0.336564 -0.290823 0.472334 -0.832059 173 185 207
0.335614 0.442266 0.297295 -0.655236 -0.688572 -0.310701 157 161 165
0.339802 0.439706 0.303964 -0.645784 -0.692737 -0.321058 163 166 171
0.348306 0.438707 0.294623 -0.591368 -0.804805 -0.0507318 157 159 163
0.354132 0.436029 0.288475 -0.744069 -0.657298 0.119667 158 160 164
-0.355931 0.428403 0.406207 -0.345822 -0.909078 -0.232345 84 68 88
-0.352803 0.426498 0.410813 -0.299233 -0.893219 -0.335588 96 68 84
-0.349453 0.42736 0.402176 -0.333286 -0.914328 -0.230052 84 71 93
-0.349742 0.42528 0.409318 -0.440039 -0.882232 -0.167428 93 67 84
-0.344118 0.425772 0.398646 -0.179105 -0.978577 -0.101529 59 78 108
-0.107355 0.412174 0.323775 -0.358449 0.29949 -0.884206 189 192 199
-0.10368 0.417822 0.324569 -0.448562 0.349602 -0.822539 172 175 182
-0.0996802 0.419085 0.322546 -0.270875 0.447755 -0.85214 171 175 181
-0.0957856 0.412466 0.318873 -0.264158 0.360054 -0.894753 179 183 189
0.0385721 0.435628 0.340489 -0.617234 0.386802 -0.685133 169 179 199
0.0423227 0.437835 0.334168 -0.478431 0.45705 -0.749806 170 176 193
0.0498452 0.436639 0.330412 -0.176507 0.468463 -0.865672 176 185 204
0.0466105 0.434665 0.335596 -0.296353 0.507106 -0.809332 177 184 203
0.111292 0.441169 0.336569 0.0020408 -0.871016 -0.491251 161 167 172
-0.124574 0.261104 -0.0425092 -0.355047 -0.934399 -0.0289986 117 121 122
-0.125053 0.25559 -0.060715 -0.862459 -0.500727 -0.0737351 129 138 146
-0.37543 0.431758 0.402134 -0.0939924 -0.962182 -0.255679 64 74 97
-0.368518 0.431181 0.398578 -0.0828094 -0.969323 -0.23142 68 78 101
-0.149928 0.418355 0.319392 0.167252 -0.929293 -0.329303 64 74 97
-0.127671 0.423116 0.330692 -0.760469 -0.0976792 -0.641986 96 97 103
-0.0927913 0.419089 0.320699 -0.294224 0.405796 -0.865311 166 170 177
-0.0891066 0.423452 0.319038 -0.219141 0.368502 -0.903429 162 170 177
-0.0585542 0.424291 0.310268 -0.28602 0.25018 -0.924988 130 128 132
0.0317195 0.444456 0.340582 -0.848326 -0.0612954 -0.525915 122 127 141
0.0396124 0.446252 0.338933 -0.44507 0.464407 -0.765662 131 138 149
0.0400384 0.447277 0.340622 -0.606307 0.387462 -0.694453 136 140 153
0.0463956 0.442331 0.333575 -0.20261 0.505775 -0.838535 156 161 174
0.0535839 0.447028 0.334529 -0.17781 0.512339 -0.840174 130 131 141
0.104684 0.455494 0.359843 0.108261 -0.937525 -0.330646 147 150 154
0.11001 0.445141 0.333409 -0.143787 -0.944107 -0.296627 180 186 193
-0.133631 0.255813 -0.064352 -0.772807 -0.631759 -0.0604153 118 124 128
-0.126503 0.259172 -0.0569135 -0.857282 -0.514699 -0.0123931 120 125 126
-0.361699 0.432774 0.38662 -0.200578 -0.957689 -0.206399 69 80 99
-0.194878 0.420537 0.326492 -0.624998 -0.709227 -0.326151 85 103 126
-0.175171 0.419641 0.316931 0.0016375 -0.984913 -0.173045 72 88 103
-0.149923 0.421253 0.310845 0.218008 -0.86207 -0.457502 97 94 117
-0.114755 0.43015 0.329431 -0.550377 0.350551 -0.757759 83 96 103
-0.111862 0.437628 0.335326 -0.462251 0.433079 -0.7738 95 109 117
-0.10421 0.432605 0.329886 -0.386565 0.405611 -0.828279 114 123 132
-0.106332 0.437093 0.331804 -0.410293 0.382946 -0.827654 111 121 131
-0.0990391 0.429363 0.324398 -0.300856 0.473518 -0.827808 144 149 156
-0.0947926 0.435204 0.326383 -0.192594 0.436653 -0.878773 132 139 146
-0.0919567 0.42953 0.322834 -0.229401 0.43559 -0.870423 132 140 148
-0.0869613 0.435848 0.324725 -0.164299 0.373819 -0.912834 94 112 122
-0.0822659 0.433907 0.31823 -0.322518 0.385922 -0.864318 100 118 129
-0.0603386 0.429752 0.311661 -0.19236 0.302036 -0.933687 127 126 131
-0.0485373 0.431519 0.311031 -0.518287 0.421242 -0.744267 115 111 113
0.0465389 0.449969 0.338706 -0.241435 0.507575 -0.82709 116 123 138
0.0573591 0.456731 0.339987 -0.213896 0.576645 -0.788498 52 56 65
0.0600176 0.450189 0.334537 -0.304566 0.493459 -0.814701 104 107 116
-0.142361 0.262585 -0.0578637 -0.636158 -0.760007 -0.133014 116 121 124
-0.368425 0.43452 0.383354 -0.176341 -0.966672 -0.185607 82 83 86
-0.191765 0.423101 0.305488 -0.0108359 -0.991964 -0.126054 60 77 105
-0.158258 0.42277 0.293581 0.0112419 -0.883769 -0.467789 81 77 103
-0.117002 0.442035 0.332793 0.000410452 0.303422 -0.952856 63 69 79
-0.120108 0.435525 0.328854 -0.0193197 0.0276017 -0.999432 63 75 85
-0.123018 0.44008 0.327534 -0.00515051 0.151107 -0.988504 47 52 61
-0.111559 0.443336 0.332955 -0.440464 0.413573 -0.796836 69 78 86
-0.10043 0.44545 0.33091 0.462342 -0.0201893 -0.886472 82 81 90
-0.0979054 0.439726 0.331103 -0.494727 0.24278 -0.834448 118 123 128
-0.0928101 0.444876 0.331785 0.135537 0.268794 -0.953614 107 109 116
-0.0898854 0.441766 0.328022 -0.167285 0.378741 -0.910259 92 104 112
-0.0783901 0.438401 0.317101 -0.253671 0.428318 -0.867292 85 103 116
-0.0693372 0.434635 0.315291 -0.285896 0.355117 -0.890031 131 144 155
-0.0690961 0.434765 0.31519 -0.282402 0.352366 -0.892237 132 145 156
-0.0717745 0.439355 0.316501 -0.127258 0.28859 -0.948958 100 114 127
-0.0631614 0.434762 0.313544 -0.233568 0.338855 -0.911385 129 131 138
-0.0630441 0.434883 0.313461 -0.244311 0.334525 -0.910168 128 130 137
-0.0658953 0.440171 0.315681 -0.19593 0.2688 -0.943058 136 141 149
-0.0593639 0.439894 0.313767 -0.268567 0.312375 -0.911205 113 111 114
-0.0334443 0.442575 0.312631 0.459726 -0.732695 -0.501807 133 133 142
-0.0369664 0.441776 0.309284 0.344475 -0.678086 -0.649258 119 117 123
0.045229 0.461955 0.340009 -0.562711 -0.553406 -0.614083 65 69 78
0.0509288 0.463003 0.337576 -0.455632 -0.329177 -0.827069 70 75 82
0.089005 0.466332 0.335425 0.185558 -0.912149 -0.365449 155 159 162
0.0855062 0.465064 0.332509 -0.155702 -0.871778 -0.464501 128 131 133
0.0890744 0.462736 0.335962 -0.0159353 -0.925744 -0.377816 144 147 150
0.0889993 0.462559 0.338864 -0.132289 -0.932952 -0.334814 142 145 148
-0.421238 0.443149 0.393205 -0.223607 -0.946092 -0.23433 95 100 95
-0.382754 0.439528 0.375553 -0.210832 -0.928108 -0.306863 84 70 78
-0.370051 0.437097 0.373959 -0.265557 -0.90389 -0.335354 93 82 88
-0.119591 0.445846 0.329517 0.180303 0.106286 -0.977852 52 46 56
-0.108594 0.44867 0.331914 -0.32057 0.00835642 -0.947188 63 52 62
-0.11362 0.446768 0.328871 -0.417973 -0.307746 -0.854746 56 48 59
-0.103297 0.451022 0.330452 -0.579957 -0.266871 -0.769694 71 50 59
-0.0819999 0.444279 0.318246 -0.0806468 0.500987 -0.861689 60 66 77
-0.0748841 0.445124 0.318914 -0.10576 0.35414 -0.929193 62 67 78
-0.0782362 0.449961 0.319902 -0.0911558 0.368674 -0.925078 65 50 60
-0.0681559 0.445433 0.318553 -0.189597 0.3727 -0.908376 92 89 96
-0.0713577 0.449388 0.318432 0.00263018 0.259997 -0.965606 66 53 62
-0.0612191 0.444646 0.315722 -0.27968 0.341269 -0.897393 91 85 90
-0.0647247 0.450026 0.318396 -0.249283 0.343686 -0.905393 70 55 62
-0.0642901 0.450048 0.318105 -0.273993 0.360681 -0.891536 70 54 61
-0.0456793 0.449979 0.310674 -0.178008 0.206639 -0.962088 67 50 54
-0.0433059 0.44514 0.309617 -0.0233702 0.111672 -0.99347 84 74 78
-0.0333366 0.445459 0.309393 0.387588 -0.820961 -0.419284 120 117 128
-0.037076 0.445956 0.306608 0.307173 -0.681717 -0.664008 78 70 77
0.0451736 0.46683 0.337424 0.112275 -0.689336 -0.715689 84 89 97
0.0546673 0.47123 0.333999 0.0620477 -0.863408 -0.500677 98 104 110
0.0675275 0.473049 0.335781 -0.177913 -0.944845 -0.27498 115 123 130
0.0808934 0.467892 0.331844 -0.264145 -0.940268 -0.214763 144 151 157
0.0771849 0.470648 0.333699 -0.194468 -0.951952 -0.236578 141 147 154
0.0712391 0.470463 0.32726 -0.0004403 -0.978976 -0.203975 139 147 155
0.0855121 0.469464 0.330524 -0.0861821 -0.967219 -0.238874 153 157 161
0.0854778 0.470362 0.324485 -0.167757 -0.88471 -0.434909 135 137 139
0.0894085 0.466937 0.330695 0.338037 -0.831032 -0.441721 151 154 157
0.0916461 0.469107 0.334084 -0.158864 -0.963463 -0.215643 153 155 157
-0.382766 0.443108 0.360342 -0.285909 -0.93143 -0.225152 78 78 90
-0.382814 0.441549 0.368147 -0.241032 -0.929529 -0.27907 80 75 92
-0.126177 0.453554 0.321461 0.445271 -0.79415 -0.413594 72 41 50
-0.114866 0.454876 0.325217 -0.347008 -0.780217 -0.52043 82 45 56
-0.103345 0.45457 0.322631 -0.42921 -0.863096 -0.266164 83 49 60
-0.104844 0.454099 0.323448 -0.506371 -0.55209 -0.662409 79 48 59
-0.097321 0.453383 0.316585 0.0478372 -0.95137 -0.304312 88 52 64
-0.097482 0.451615 0.324395 -0.280193 -0.560618 -0.77923 77 51 60
-0.0914745 0.453776 0.314542 -0.332609 -0.913718 -0.233432 87 51 63
0.0435604 0.472974 0.335794 -0.0187376 -0.766223 -0.642301 111 118 128
0.0545116 0.47703 0.334333 -0.16117 -0.789133 -0.592701 117 125 137
0.0601663 0.476599 0.330924 -0.345701 -0.781482 -0.519401 120 128 137
0.0670286 0.471502 0.32623 0.112723 -0.970631 -0.212528 140 148 158
0.0760959 0.475554 0.324772 -0.272707 -0.809765 -0.51953 128 134 141
0.0713607 0.471342 0.321981 -0.04952 -0.964054 -0.261052 141 149 157
0.071282 0.472565 0.316773 -0.0398912 -0.951307 -0.305654 136 142 149
0.0670435 0.472454 0.320081 -0.116303 -0.956778 -0.266549 126 133 141
0.0808668 0.473565 0.317215 -0.0772096 -0.897109 -0.43501 135 137 140
0.0787749 0.472573 0.315211 0.0297809 -0.926155 -0.375965 148 151 156
0.0752952 0.47072 0.317509 -0.0304957 -0.957523 -0.286739 146 152 160
0.089112 0.471978 0.317881 0.0556835 -0.841076 -0.538043 137 139 140
0.0891846 0.473651 0.315117 0.30693 -0.861033 -0.405482 165 170 175
-0.243636 0.433496 0.290283 -0.13033 -0.965231 -0.22659 55 77 106
-0.105049 0.456624 0.315958 -0.215085 -0.955491 -0.201928 86 49 60
-0.107751 0.455744 0.319147 -0.581457 -0.744803 -0.327378 76 45 53
-0.0874474 0.45964 0.310556 -0.694471 -0.467131 -0.547264 88 50 61
-0.0839755 0.459863 0.316693 -0.183645 -0.642096 -0.744303 88 50 62
-0.0520373 0.455853 0.305096 0.516399 -0.672437 -0.530246 84 50 59
0.0602701 0.475005 0.320966 -0.166514 -0.970682 -0.173349 134 144 156
0.0668574 0.473467 0.314328 0.112867 -0.953503 -0.27945 137 147 158
0.0668826 0.473924 0.30837 -0.19003 -0.929853 -0.315058 121 127 135
0.0784659 0.478306 0.312342 0.13697 -0.92876 -0.344448 157 161 166
0.0713174 0.474225 0.312088 0.201327 -0.890469 -0.408083 138 144 150
0.0713313 0.475551 0.306745 0.181908 -0.808031 -0.560352 127 131 136
0.0754011 0.475792 0.309967 0.24577 -0.722255 -0.646487 132 135 139
-0.16997 0.431569 0.260378 0.609611 -0.579977 -0.540371 113 68 83
-0.134085 0.45834 0.303589 0.243814 -0.868772 -0.431033 79 48 56
-0.126766 0.458076 0.297721 -0.175551 -0.913708 -0.366495 80 45 54
-0.129006 0.457669 0.306051 0.19747 -0.925872 -0.322128 82 46 56
-0.12622 0.457659 0.296473 -0.330861 -0.824227 -0.459544 74 41 48
-0.103734 0.456821 0.292816 -0.458206 -0.826412 -0.327246 87 48 60
0.0426561 0.4814 0.308453 -0.171305 -0.798628 -0.57693 126 131 139
0.0628113 0.480262 0.298008 -0.0475831 -0.921554 -0.385323 140 145 150
0.0672063 0.476163 0.304235 -0.191319 -0.944184 -0.268168 138 144 150
0.067746 0.477246 0.298572 -0.165718 -0.93933 -0.300329 134 139 144
0.0660691 0.475711 0.291798 -0.067031 -0.965667 -0.250986 151 156 162
0.0725927 0.479611 0.298798 -0.112385 -0.865862 -0.487495 139 142 147
0.0777133 0.480849 0.296836 0.281793 -0.867401 -0.410132 157 162 167
0.0787314 0.479651 0.302761 0.250941 -0.868092 -0.428304 164 168 172
-0.315942 0.445308 0.30493 0.0748645 -0.991144 -0.109678 39 81 123
-0.140027 0.457878 0.296794 0.025874 -0.91827 -0.395109 78 58 65
-0.133479 0.459669 0.293936 -0.048465 -0.924801 -0.377352 77 45 53
-0.126758 0.461771 0.291336 -0.190259 -0.921105 -0.339657 79 47 52
-0.118594 0.45694 0.289833 -0.559906 -0.727446 -0.396646 77 43 50
-0.114645 0.4594 0.289812 -0.0839662 -0.960137 -0.266622 91 51 62
-0.107098 0.460634 0.286251 -0.0701377 -0.985521 -0.154367 91 54 68
0.0287717 0.486374 0.304404 -0.171662 -0.947516 -0.269712 142 146 153
0.0378068 0.483905 0.306823 0.0687182 -0.816144 -0.573748 119 123 128
0.0384734 0.487873 0.303047 0.0386987 -0.79755 -0.60201 136 140 145
0.0434962 0.485514 0.304959 -0.145029 -0.815601 -0.560144 123 126 130
0.0549822 0.482737 0.300147 0.0026831 -0.777286 -0.629142 127 132 137
0.0501201 0.485935 0.3013 -0.432047 -0.741509 -0.513322 121 125 128
0.054966 0.485126 0.293139 -0.097786 -0.964884 -0.243796 142 148 154
0.0585942 0.481399 0.299474 -0.351967 -0.818034 -0.454906 119 123 127
0.0676911 0.481085 0.296053 0.0560904 -0.931876 -0.358415 140 145 149
0.0661191 0.478951 0.293604 -0.0973227 -0.940834 -0.324592 144 148 153
0.0657583 0.481056 0.288508 0.119194 -0.973021 -0.197541 154 159 163
0.0614754 0.484062 0.290197 -0.181025 -0.839198 -0.512813 118 119 119
0.0720809 0.482114 0.293828 -0.231832 -0.951821 -0.200724 163 167 172
0.069242 0.480899 0.290743 -0.0496012 -0.959937 -0.275791 149 153 156
-0.575083 0.473719 0.408253 -0.218362 -0.91777 -0.331688 79 64 75
-0.140006 0.463789 0.282047 -0.0164041 -0.928462 -0.371066 84 50 60
-0.140562 0.463889 0.280998 -0.114918 -0.935565 -0.333933 77 47 55
-0.133587 0.463004 0.286794 -0.0510606 -0.926512 -0.372785 79 47 54
-0.126207 0.463748 0.284117 -0.258269 -0.918976 -0.297959 111 77 82
-0.1149 0.462566 0.282226 -0.176745 -0.952493 -0.248028 80 50 59
-0.106614 0.461586 0.276669 -0.195078 -0.949963 -0.243958 86 64 75
-0.0931992 0.46285 0.267288 -0.00619836 -0.986639 -0.162806 100 60 74
0.0375089 0.490343 0.296995 0.246071 -0.747735 -0.616718 113 113 111
0.0452888 0.491479 0.301652 -0.504091 -0.810434 -0.298479 125 127 129
0.0453535 0.490559 0.303134 -0.466413 -0.835365 -0.290904 118 120 121
0.0501782 0.487187 0.292679 -0.0671329 -0.974908 -0.212245 150 156 163
0.061566 0.484613 0.281744 -0.388781 -0.827779 -0.404513 127 129 129
0.0699373 0.485229 0.287713 -0.227733 -0.954515 -0.192456 163 167 172
0.0677498 0.487687 0.282119 0.313457 -0.769369 -0.556611 165 170 175
0.0682263 0.48605 0.279526 0.201282 -0.726262 -0.657289 134 136 137
-0.574986 0.476626 0.401115 -0.204744 -0.965903 -0.158464 91 65 87
-0.575124 0.476544 0.40101 -0.209633 -0.963581 -0.166027 91 65 87
