ply
format ascii 1.0
element vertex 717
property float x
property float y
property float z
property float nx
property float ny
property float nz
property uchar diffuse_red
property uchar diffuse_green
property uchar diffuse_blue
end_header
0.351286 1.02926 0.653726 -0.0101525 -0.128904 -0.991605 98 97 86
-0.238721 0.995698 0.759545 -0.20421 -0.0680921 -0.976556 87 85 73
-0.23768 0.995669 0.759461 -0.00866094 -0.0801166 -0.996748 87 85 73
-0.237474 0.995721 0.759371 -0.222733 -0.0448144 -0.973849 87 85 73
-0.236232 0.995506 0.758154 -0.093403 -0.0256575 -0.995298 86 84 72
-0.236216 0.995733 0.759205 -0.168227 0.0113922 -0.985682 86 84 73
-0.236298 0.995518 0.758426 -0.111429 -0.00435571 -0.993763 86 85 73
-0.23376 0.996265 0.761136 0.284587 -0.22387 -0.932144 82 81 69
-0.211748 0.99749 0.757477 0.102872 -0.886897 -0.450369 71 70 60
-0.210747 0.997511 0.756982 0.0125888 -0.801973 -0.597228 70 69 58
-0.210027 0.998106 0.756638 0.254991 -0.746701 -0.614343 69 68 57
-0.209041 0.997936 0.7577 0.143252 -0.784709 -0.603084 68 68 57
-0.209036 0.99794 0.757605 0.142675 -0.763468 -0.629889 68 68 57
-0.206189 0.997501 0.753377 0.125636 -0.769997 -0.625556 68 67 57
0.340208 1.02824 0.647322 -0.0165487 -0.0866329 -0.996103 84 83 75
0.347416 1.02956 0.651378 -0.0437211 -0.298873 -0.953291 88 87 78
0.349171 1.02969 0.651671 -0.000257224 -0.234648 -0.97208 97 97 87
-0.239043 0.997004 0.760384 -0.108943 0.00888157 -0.994008 86 84 73
-0.238293 0.997152 0.760646 -0.191167 -0.0833436 -0.978013 85 83 72
-0.229008 0.997433 0.759378 -0.185455 0.166584 -0.96843 78 77 65
-0.22706 0.9975 0.759659 -0.196328 0.132891 -0.971491 77 76 64
-0.226051 0.997569 0.759725 -0.196278 0.135505 -0.97114 76 75 64
-0.211674 0.998338 0.755708 0.299986 -0.789147 -0.535963 72 70 60
-0.209073 0.998902 0.756565 0.238972 -0.726373 -0.644418 67 67 57
0.337579 1.02918 0.650365 -0.00853222 -0.173393 -0.984816 55 55 50
0.338381 1.03027 0.650371 -0.00575861 -0.135622 -0.990744 55 56 49
0.337759 1.0299 0.649249 0.00108141 -0.20467 -0.97883 57 57 50
0.337744 1.02991 0.649319 -0.000128478 -0.191315 -0.981529 57 57 50
0.341498 1.03001 0.649859 -0.00364769 -0.207641 -0.978198 66 64 57
0.34018 1.02951 0.648509 -0.00254336 -0.186242 -0.982501 69 67 60
0.34114 1.02948 0.648432 -0.0179005 -0.0740096 -0.997097 72 70 63
-0.239323 0.997292 0.761522 -0.210434 0.0385776 -0.976847 86 84 72
-0.228334 0.998567 0.759552 -0.0542513 0.181559 -0.981882 77 76 65
-0.227604 0.998683 0.759851 -0.195898 0.132618 -0.971615 76 75 64
-0.228459 0.998344 0.758498 -0.154618 0.225937 -0.961793 78 76 65
-0.226251 0.998687 0.759594 -0.196451 0.133093 -0.971439 76 74 64
-0.225972 0.998891 0.760348 -0.207628 0.0907144 -0.973993 75 73 63
-0.211464 0.999275 0.754069 0.267158 -0.816756 -0.511406 70 69 58
-0.210486 0.999152 0.755913 0.254539 -0.679507 -0.688099 68 67 57
0.33303 1.03062 0.651699 0.00822526 -0.241479 -0.970371 48 48 43
0.33233 1.02996 0.649833 -0.00715825 -0.109443 -0.993967 48 48 43
0.333624 1.03046 0.651148 -0.0869885 -0.121097 -0.988822 49 49 44
0.335773 1.03044 0.651106 -0.0103671 -0.0911756 -0.995781 51 51 46
0.33631 1.03116 0.65014 -0.0910985 -0.0539661 -0.994379 51 51 46
0.336647 1.03077 0.648964 -0.0707471 -0.0231744 -0.997225 54 54 48
0.336641 1.03077 0.649023 -0.0732037 -0.0407106 -0.996486 54 54 48
0.336424 1.03095 0.649541 -0.114928 -0.0813461 -0.990038 51 52 46
0.336414 1.03095 0.649598 -0.113013 -0.0662489 -0.991383 51 51 46
0.340627 1.03113 0.650023 -0.00599888 -0.145319 -0.989367 60 59 52
0.339828 1.03098 0.649671 -0.026146 -0.0662621 -0.99746 60 59 51
0.338769 1.03102 0.64989 -0.0345354 -0.0055345 -0.999388 56 56 49
0.340767 1.03094 0.649556 -0.0055272 -0.153468 -0.988138 62 61 53
0.341641 1.03088 0.649408 -0.00469494 -0.219713 -0.975553 66 64 56
0.341881 1.0307 0.648914 0.0009875 -0.238007 -0.971263 69 67 59
0.341674 1.03077 0.649326 0.00112233 -0.229802 -0.973237 67 65 57
-0.240392 0.998572 0.762098 -0.21767 -0.00774934 -0.975992 85 83 71
-0.239173 0.998596 0.761922 -0.217017 -0.00441688 -0.976158 85 83 72
-0.237037 0.998982 0.762302 0.0781907 -0.203004 -0.976051 82 80 69
-0.223781 1.00006 0.759842 -0.233304 -0.0592678 -0.970596 72 71 60
-0.211897 0.999888 0.75509 0.291375 -0.55093 -0.782034 69 69 58
-0.209007 0.999843 0.755426 0.267854 -0.758207 -0.594455 67 67 57
0.33372 1.03133 0.650767 -0.0522411 -0.10115 -0.993499 49 48 43
0.333049 1.03143 0.651074 -0.185956 -0.184439 -0.965092 48 48 43
0.33237 1.03106 0.650067 -0.0360469 -0.173236 -0.984221 48 48 43
0.331498 1.03111 0.650241 -0.0257145 -0.29375 -0.955536 47 47 42
0.33415 1.03119 0.650376 -0.00182885 -0.155692 -0.987804 49 49 44
0.335109 1.03199 0.649741 0.00258732 -0.22776 -0.973714 50 50 45
0.3366 1.03184 0.649184 -0.0583386 -0.101075 -0.993167 51 51 45
0.335797 1.0319 0.649421 -0.0796077 -0.0930734 -0.992472 51 50 45
0.337449 1.03178 0.648972 -0.000475794 -0.188415 -0.982089 54 53 47
0.340592 1.03196 0.649463 0.0024842 -0.234159 -0.972195 59 58 50
0.34216 1.03181 0.649083 0.00499693 -0.303791 -0.952726 64 64 55
0.341548 1.03192 0.649366 0.00192881 -0.234392 -0.97214 61 61 53
-0.240305 0.99988 0.762488 -0.217613 -0.003794 -0.976028 83 82 70
-0.239034 0.999896 0.762265 -0.213801 0.0233206 -0.976599 82 80 69
-0.237374 0.999987 0.761956 0.0500264 -0.0611558 -0.996874 81 80 69
-0.227463 0.999987 0.760314 -0.191707 0.0508024 -0.980136 74 72 62
-0.227848 0.999805 0.759693 -0.208719 0.0751762 -0.975082 75 73 63
-0.213107 1.00026 0.754571 0.253044 -0.49658 -0.830288 69 68 58
-0.211037 1.0004 0.75342 0.479316 -0.22141 -0.849255 68 68 57
-0.209463 1.0009 0.754632 0.260611 -0.821965 -0.506415 66 66 55
0.333069 1.03224 0.650543 -0.0635523 0.0929174 -0.993644 48 48 43
0.332775 1.0319 0.649249 -0.117316 -0.29484 -0.948318 49 49 43
0.332802 1.03273 0.64876 -0.103515 -0.165768 -0.980717 48 48 42
0.336549 1.03286 0.64918 -0.00432464 -0.146619 -0.989184 51 49 44
0.338625 1.03309 0.649743 0.00504839 -0.251661 -0.967802 53 52 46
0.341478 1.03298 0.649408 -0.00123301 -0.193951 -0.981011 59 59 52
0.340547 1.03302 0.649518 0.00180221 -0.221033 -0.975265 57 56 49
0.343356 1.03311 0.649741 0.00159669 -0.234764 -0.972051 63 62 54
0.342359 1.03313 0.649764 -0.000907719 -0.198445 -0.980112 60 59 52
0.344267 1.03307 0.64962 0.00473842 -0.310127 -0.950683 66 65 57
0.344759 1.03306 0.649238 -0.147211 -0.140479 -0.979079 68 67 59
0.344615 1.03367 0.648555 -0.00458011 -0.417449 -0.908689 69 67 61
-0.232809 1.00103 0.760906 -0.206782 0.0666698 -0.976113 77 76 65
-0.227879 1.00114 0.76031 -0.210768 0.0679492 -0.975172 74 72 62
-0.226493 1.00111 0.76016 -0.232094 -0.0608903 -0.970786 72 70 60
-0.225116 1.0011 0.759798 -0.230979 -0.0472469 -0.971811 72 71 60
-0.213578 1.0012 0.754019 0.157484 -0.426495 -0.890674 69 69 58
-0.210782 1.00184 0.753977 0.482965 -0.176502 -0.857667 66 66 55
-0.208539 1.00163 0.752268 0.164895 -0.870625 -0.463488 66 66 55
0.332692 1.03357 0.648313 -0.0159309 -0.0641771 -0.997811 47 47 42
0.335624 1.03376 0.648843 -0.0260833 -0.0150945 -0.999546 49 49 44
0.335748 1.03397 0.649325 -0.0918914 0.0011407 -0.995768 49 49 44
0.337407 1.03366 0.648529 -0.0468282 -0.17291 -0.983824 52 52 46
0.337571 1.03394 0.649224 -0.0505121 -0.021948 -0.998482 52 51 46
0.336454 1.03369 0.64867 -0.00485995 -0.145802 -0.989302 51 50 45
0.34235 1.03398 0.649241 -0.000222921 -0.209444 -0.977821 60 59 53
0.343902 1.03488 0.648855 0.00450969 -0.308825 -0.951108 63 62 56
0.343249 1.03393 0.649113 0.00253898 -0.26283 -0.964839 62 61 54
0.345273 1.03471 0.648363 0.00449887 -0.366864 -0.930264 69 67 61
0.347085 1.03481 0.648251 -0.00877011 -0.162633 -0.986648 72 70 64
-0.240171 1.00119 0.762836 -0.210656 0.0388166 -0.976789 82 80 69
-0.238604 1.00092 0.761203 0.057433 -0.0864852 -0.994596 82 80 69
-0.23759 1.00096 0.761439 0.0400957 -0.126315 -0.99118 81 79 68
-0.236393 1.0012 0.762462 -0.216154 0.0192189 -0.97617 79 78 66
-0.235142 1.00122 0.762188 -0.223568 -0.0253013 -0.97436 78 77 66
-0.234108 1.00128 0.762172 -0.195356 0.119144 -0.973468 77 76 65
-0.228309 1.0023 0.760319 -0.210232 0.0687479 -0.975231 73 72 61
-0.226603 1.00219 0.759726 -0.225333 -0.0463954 -0.973176 72 71 61
-0.22618 1.00236 0.760272 -0.227855 -0.0241379 -0.973396 71 70 60
-0.214053 1.00211 0.753361 0.0860637 -0.360413 -0.928814 69 68 58
-0.212878 1.00212 0.753512 -0.000188164 -0.340143 -0.940374 67 67 56
-0.211708 1.00163 0.753024 0.508756 -0.265962 -0.818799 67 67 56
-0.208633 1.00202 0.749954 0.160422 -0.488455 -0.857716 66 66 56
0.333425 1.0346 0.648403 -0.0338469 0.0242208 -0.999134 47 47 42
0.332882 1.03473 0.648781 -0.0326453 0.0155224 -0.999347 46 47 41
0.336312 1.03475 0.648764 -0.0047141 -0.145642 -0.989326 50 50 45
0.334423 1.03457 0.648277 -0.0349367 0.0233774 -0.999116 48 48 43
0.335734 1.0349 0.64922 -0.0651708 0.139074 -0.988135 48 49 44
0.337269 1.0347 0.648624 -0.021283 -0.0453674 -0.998744 51 50 44
0.338941 1.03442 0.647204 -0.0170151 -0.0805319 -0.996607 55 55 48
0.343973 1.03576 0.648476 -0.0336583 -0.0911059 -0.995272 62 61 54
0.342081 1.03562 0.648082 -0.0202455 -0.070257 -0.997323 58 56 51
0.343333 1.035 0.649162 -0.109558 -0.248871 -0.96232 61 59 53
0.344383 1.03561 0.648055 -0.0228643 -0.14978 -0.988455 65 63 56
0.345769 1.03566 0.648047 -0.154858 -0.066456 -0.985699 69 67 61
-0.238743 1.00246 0.763138 -0.220343 -0.0149498 -0.975308 79 78 66
-0.237404 1.00209 0.761728 -0.185983 0.0231587 -0.98228 79 78 66
-0.236583 1.00231 0.762083 -0.226797 -0.0606076 -0.972054 78 77 66
-0.235307 1.00232 0.761834 -0.222993 -0.0232624 -0.974542 77 76 65
-0.232913 1.00212 0.760549 -0.217174 0.0189455 -0.975949 76 75 64
-0.231645 1.00214 0.760326 -0.212879 0.0459157 -0.975999 76 74 63
-0.23176 1.00242 0.761409 -0.147221 0.13786 -0.979449 74 73 62
-0.229549 1.00228 0.760396 -0.214055 0.0465967 -0.97571 74 72 61
-0.208075 1.00319 0.751014 0.150598 -0.21591 -0.96473 65 65 54
-0.207499 1.0033 0.751732 0.0825317 0.00783174 -0.996558 65 65 54
0.334441 1.0357 0.648711 -0.05075 0.0905311 -0.9946 47 47 42
0.332663 1.03556 0.648344 -0.0251674 -0.0144511 -0.999579 48 47 42
0.335275 1.03563 0.64847 -0.0473478 0.0750048 -0.996058 48 48 43
0.336125 1.03557 0.648276 -0.0256591 -0.0210229 -0.99945 50 50 45
0.338025 1.03558 0.647651 -0.0148273 -0.0892679 -0.995897 50 50 44
0.339805 1.03547 0.647273 -0.0169119 -0.0833562 -0.996376 55 54 48
0.338905 1.03553 0.647492 -0.0149772 -0.0916068 -0.995683 51 51 45
0.342537 1.03654 0.647737 -0.0209426 -0.0651952 -0.997653 58 57 50
0.343703 1.03656 0.647842 -0.0074461 -0.163466 -0.986521 61 60 53
0.34634 1.03663 0.647969 -0.155371 -0.108909 -0.981834 69 68 62
0.345204 1.03663 0.648012 -0.00562084 -0.179618 -0.98372 65 64 57
-0.281494 1.00599 0.79736 0.446441 -0.542589 -0.711539 106 106 96
-0.233971 1.00341 0.760987 -0.0432964 -0.14628 -0.988295 75 74 63
-0.232696 1.00341 0.760854 -0.0979481 -0.14912 -0.983956 74 73 62
-0.231557 1.00345 0.760796 -0.199033 0.10837 -0.973982 72 72 60
-0.229245 1.00326 0.759745 -0.194778 0.128006 -0.972459 72 71 60
-0.228114 1.0033 0.759769 -0.129163 0.134709 -0.982431 71 70 59
-0.227209 1.00339 0.760006 -0.187243 0.161054 -0.969021 71 70 59
-0.208782 1.0031 0.750425 0.211976 -0.482973 -0.84959 66 66 55
0.332793 1.0367 0.648734 -0.0235381 -0.02211 -0.999478 46 46 41
0.335292 1.03651 0.648128 -0.101123 0.0199473 -0.994674 48 48 43
0.337152 1.03674 0.648079 -0.0855622 0.19747 -0.976568 48 49 43
0.338092 1.0367 0.647922 -0.0332149 0.00712341 -0.999423 49 49 43
0.341121 1.03779 0.648714 -0.166326 0.21279 -0.962838 52 51 45
0.339743 1.03748 0.647429 -0.0559515 0.0943694 -0.993964 50 50 44
0.339576 1.03656 0.6476 -0.0562814 0.0969686 -0.993695 52 52 46
0.338996 1.03758 0.647731 -0.0439872 0.0509783 -0.997731 50 50 44
0.338959 1.03664 0.647753 -0.0317795 -0.000874982 -0.999495 51 51 45
0.341794 1.03749 0.647585 -0.0195661 -0.0722752 -0.997193 53 52 46
0.344242 1.03753 0.647667 -0.00706363 -0.163652 -0.986493 60 60 54
0.344251 1.03752 0.647631 -0.00772661 -0.159344 -0.987193 60 60 54
0.342578 1.03742 0.647364 -0.020113 -0.0721335 -0.997192 55 56 49
0.345548 1.03756 0.64771 -0.00599435 -0.178192 -0.983977 64 64 58
0.347026 1.03763 0.647887 0.00401533 -0.340876 -0.9401 69 68 62
-0.280699 1.00695 0.797648 0.445855 -0.548592 -0.707291 104 103 94
-0.278386 1.00738 0.798229 0.259467 -0.638633 -0.724448 97 95 85
-0.239979 1.00385 0.763882 -0.183529 0.155289 -0.970671 79 78 67
-0.228685 1.00445 0.759938 -0.171423 0.206294 -0.963357 70 70 59
-0.227482 1.00448 0.759895 -0.165917 0.222881 -0.960623 70 69 58
0.3359 1.03799 0.649535 -0.0269567 -0.00965736 -0.99959 47 46 41
0.33563 1.03768 0.6487 -0.0380177 0.0369232 -0.998595 48 47 42
0.33652 1.03777 0.648315 -0.0854868 0.197462 -0.976576 48 49 43
0.340225 1.03897 0.648802 -0.044994 0.0503851 -0.997716 50 49 44
0.340131 1.03871 0.648091 -0.055819 0.0943841 -0.99397 51 50 45
0.341513 1.0385 0.647437 -0.0100032 -0.131672 -0.991243 52 51 45
0.340441 1.03851 0.647476 -0.033631 0.00150335 -0.999433 52 51 45
0.343426 1.03844 0.647303 -0.0014433 -0.216912 -0.97619 56 56 50
0.342504 1.03847 0.647352 -0.00226033 -0.200484 -0.979694 54 53 47
0.345552 1.0384 0.647213 -0.0067533 -0.189476 -0.981862 64 63 56
0.344606 1.03845 0.647325 -0.000611842 -0.232742 -0.972538 60 59 53
0.347237 1.03852 0.647502 0.00323203 -0.319358 -0.947629 69 67 61
0.350379 1.03963 0.647368 -0.267925 0.193219 -0.943866 78 76 68
-0.27949 1.0077 0.797412 0.281708 -0.628542 -0.724966 99 98 88
-0.238931 1.00501 0.76365 -0.0226824 0.336314 -0.941477 76 75 64
-0.238455 1.0052 0.764516 0.00400105 0.391893 -0.920002 74 73 62
-0.234555 1.00447 0.760814 -0.219422 -0.00328261 -0.975625 74 73 62
-0.233319 1.00449 0.760728 -0.184421 0.0434569 -0.981886 74 73 62
0.337153 1.03906 0.649248 -0.128664 0.0394703 -0.990902 47 46 41
0.335961 1.03905 0.649356 -0.0323154 0.0132502 -0.99939 45 45 40
0.335863 1.03886 0.649208 -0.0311312 0.00575812 -0.999499 46 46 41
0.338295 1.03907 0.649113 -0.0393407 0.0371 -0.998537 48 48 43
0.339591 1.03943 0.64721 -0.0112332 -0.12077 -0.992617 51 49 44
0.340608 1.03941 0.647131 -0.0113219 -0.121324 -0.992548 51 50 44
0.342455 1.03931 0.646872 -0.0101136 -0.138936 -0.99025 53 52 45
0.341413 1.03933 0.646937 -0.0105264 -0.131815 -0.991219 51 50 44
0.345378 1.03946 0.647253 -0.00339821 -0.20242 -0.979293 61 60 53
0.344284 1.03947 0.647281 -0.00477788 -0.184966 -0.982733 56 55 48
0.344296 1.03947 0.647261 -0.0051131 -0.183048 -0.983091 56 55 48
0.345636 1.04012 0.646274 -0.00638184 -0.183471 -0.983004 65 63 56
0.345626 1.03927 0.646761 -0.00632009 -0.181838 -0.983308 64 63 55
0.346325 1.03925 0.646402 0.00164499 -0.297771 -0.954636 68 66 60
0.349713 1.04062 0.647382 -0.073099 0.135561 -0.988069 73 70 63
-0.281548 1.0086 0.796492 0.133924 -0.358636 -0.92382 104 103 93
-0.280429 1.00796 0.796475 0.0670761 -0.717285 -0.693543 101 100 91
-0.278391 1.00846 0.797379 0.256475 -0.602152 -0.756065 96 94 84
-0.27959 1.00804 0.793827 0.394273 -0.660011 -0.639479 101 100 90
-0.277375 1.00926 0.797598 0.415095 -0.600124 -0.683774 92 91 81
0.336899 1.04011 0.649526 -0.0309943 0.0055197 -0.999504 46 46 41
0.337786 1.04009 0.649213 -0.0480093 0.0540586 -0.997383 47 47 42
0.338424 1.04111 0.649268 -0.0229512 -0.0400909 -0.998932 46 46 41
0.341842 1.04053 0.64735 -0.000963718 -0.215825 -0.976432 50 50 45
0.340798 1.04055 0.647402 -0.0127059 -0.112481 -0.993573 49 49 43
0.342281 1.04038 0.646967 -0.00270927 -0.200288 -0.979733 50 50 44
0.344281 1.04032 0.64679 -0.00943732 -0.150599 -0.98855 56 55 48
0.342968 1.04028 0.646706 -0.0116313 -0.130455 -0.991386 52 52 45
0.345441 1.04117 0.646287 -0.00877225 -0.164625 -0.986317 60 60 52
0.345211 1.04027 0.646669 -0.006502 -0.177606 -0.98408 61 60 52
0.345619 1.04096 0.64576 -0.00556388 -0.196587 -0.980471 64 62 56
0.350399 1.0419 0.64811 -0.0805466 -0.0505005 -0.995471 70 68 61
0.350727 1.04172 0.647605 -0.042069 0.0161468 -0.998984 74 72 65
-0.278612 1.00965 0.797007 0.176987 -0.655779 -0.733914 94 93 84
-0.279579 1.0089 0.794564 -0.0182955 -0.776847 -0.629424 99 97 87
0.344987 1.0424 0.646804 5.96046e-006 -0.238874 -0.971051 53 52 47
0.345031 1.04216 0.646206 -0.00327882 -0.208361 -0.978046 55 55 49
0.345548 1.0422 0.646208 -0.0383971 -0.201872 -0.978659 57 56 50
0.34574 1.04207 0.645953 -0.0205697 -0.196654 -0.980257 59 58 52
0.345518 1.04195 0.645567 -0.00325999 -0.216442 -0.97629 61 59 53
0.35106 1.04265 0.647313 -0.011187 -0.157425 -0.987468 74 71 66
0.351626 1.04277 0.647623 -0.0155657 -0.126584 -0.991834 74 71 66
0.352779 1.04278 0.647619 -0.0107165 -0.165166 -0.986208 81 79 73
-0.277187 1.01031 0.796145 0.349148 -0.772326 -0.530668 92 91 82
0.343943 1.04324 0.646219 0.000651747 -0.248906 -0.968528 51 51 45
0.344758 1.04317 0.646043 5.17964e-005 -0.242433 -0.970168 53 53 47
0.346516 1.04306 0.645765 0.00289762 -0.304265 -0.952583 62 60 55
0.345313 1.04304 0.645728 0.00122467 -0.265068 -0.964229 56 55 50
0.351246 1.04353 0.646861 -0.00264192 -0.243751 -0.969834 74 72 66
0.350976 1.04372 0.647337 0.00133449 -0.289751 -0.957101 70 69 63
-0.280303 1.01006 0.791831 0.399445 -0.632391 -0.663721 101 100 90
-0.278464 1.01053 0.793443 0.394447 -0.640204 -0.659204 96 94 84
0.343951 1.04432 0.646286 0.0033924 -0.277245 -0.960793 49 49 44
0.345461 1.04414 0.645819 -0.00296107 -0.217509 -0.976054 55 54 48
0.344617 1.04421 0.645982 0.000349134 -0.243097 -0.970002 51 51 45
0.346412 1.0441 0.645717 -0.000201195 -0.251821 -0.967774 59 58 52
0.345487 1.0441 0.645677 0.000352591 -0.252145 -0.96769 55 55 49
0.347021 1.04398 0.645431 0.00227803 -0.302479 -0.953153 63 62 56
0.351818 1.04449 0.646617 -0.00272945 -0.244042 -0.969761 75 74 67
-0.27999 1.01101 0.792518 0.40714 -0.511937 -0.756411 99 97 88
-0.278244 1.0109 0.792617 0.228004 -0.709314 -0.666999 95 94 84
0.343956 1.04539 0.646308 0.000696868 -0.239454 -0.970908 50 49 44
0.345646 1.04527 0.646016 -0.00193319 -0.223415 -0.974722 53 52 47
0.344584 1.04528 0.646034 0.00240391 -0.297092 -0.954846 52 51 46
0.346607 1.04522 0.645882 -0.00385225 -0.208972 -0.977914 56 55 49
0.347013 1.0448 0.644842 0.000853479 -0.281286 -0.959624 62 62 54
0.348233 1.04506 0.645432 -0.00159517 -0.245875 -0.9693 63 63 56
0.347388 1.04514 0.645659 -0.00113839 -0.243385 -0.969929 60 59 53
0.350084 1.04496 0.645185 -0.00853798 -0.187603 -0.982208 75 74 66
0.34916 1.04501 0.645313 -0.00236201 -0.243399 -0.969923 69 68 60
0.350451 1.04496 0.644585 -0.0346245 -0.0310784 -0.998917 85 85 75
-0.279225 1.01171 0.791589 0.0731699 -0.630287 -0.772906 96 95 85
-0.278237 1.01184 0.791514 0.418765 -0.491661 -0.763482 94 93 84
0.345991 1.04644 0.646292 -0.00403091 -0.199818 -0.979825 52 51 46
0.348134 1.04613 0.645506 -0.00096184 -0.249911 -0.968268 60 59 54
0.348157 1.04613 0.645488 -0.0030103 -0.228405 -0.973562 60 59 54
0.349189 1.04586 0.644832 -0.00895894 -0.187522 -0.98222 69 67 61
0.347611 1.04577 0.644607 -0.00133222 -0.252366 -0.967631 63 62 56
-0.2787 1.01274 0.792998 0.319651 -0.51633 -0.794498 94 92 84
-0.278602 1.01281 0.790771 0.255704 -0.435868 -0.862922 94 93 84
0.349252 1.04723 0.646068 0.000449088 -0.268041 -0.963407 59 58 53
0.348746 1.0472 0.646104 -0.00288852 -0.23168 -0.972788 57 56 51
0.348595 1.04734 0.646331 -0.0122777 -0.15017 -0.988584 55 55 50
0.34862 1.04731 0.646212 -0.010397 -0.161931 -0.986747 56 55 50
0.350618 1.04825 0.646174 -0.0193163 -0.106541 -0.994121 62 62 55
0.349028 1.04797 0.645201 -0.0241489 -0.262037 -0.964756 61 61 54
-0.278879 1.01387 0.792419 0.365642 -0.524091 -0.769178 92 91 82
-0.279281 1.01291 0.790089 0.386759 -0.345127 -0.855164 96 95 85
0.348697 1.04912 0.645664 -0.277445 -0.201277 -0.939421 55 55 49
0.347904 1.04797 0.645246 0.00105059 -0.273574 -0.96185 56 56 50
0.350776 1.04912 0.645759 -0.0426755 0.0074052 -0.999062 62 61 55
0.34974 1.04905 0.645397 -0.0193394 -0.108666 -0.99389 60 60 53
0.352337 1.04918 0.645829 -0.016497 -0.131109 -0.991231 68 67 60
-0.279534 1.01389 0.789292 0.41701 -0.421788 -0.805107 96 95 85
-0.278428 1.01477 0.792958 0.433737 -0.56943 -0.698299 90 89 80
-0.278825 1.01397 0.790266 0.196129 -0.525723 -0.827737 94 93 83
-0.279909 1.01317 0.786883 0.422631 -0.131471 -0.896716 99 98 88
0.347756 1.05019 0.646075 -0.0585588 -0.00107167 -0.998283 50 51 44
0.348587 1.05012 0.645881 -0.0178697 -0.111819 -0.993568 53 53 47
0.349498 1.04941 0.646144 -0.0217856 -0.0916936 -0.995549 55 55 49
0.349881 1.04994 0.645061 -0.0381106 -0.0830225 -0.995819 59 58 53
0.349444 1.0501 0.645488 -0.0136371 -0.14316 -0.989606 55 54 49
0.351159 1.04997 0.645125 -0.00640136 -0.207789 -0.978153 64 62 56
0.351142 1.05029 0.645292 -0.00848883 -0.187123 -0.9823 62 61 54
-0.280135 1.01396 0.78772 0.449667 -0.296819 -0.842436 98 97 87
-0.279655 1.01408 0.78892 0.451537 -0.397479 -0.798827 96 95 85
-0.279071 1.01505 0.79072 0.360421 -0.611015 -0.704811 91 90 81
0.347823 1.05134 0.646457 -0.0336064 -0.0458832 -0.998381 50 51 45
0.349911 1.05104 0.645148 -0.00426263 -0.220269 -0.97543 56 55 48
0.349883 1.05104 0.645172 -0.00554451 -0.207101 -0.978304 56 55 48
0.350627 1.05095 0.644948 -0.00666592 -0.205108 -0.978717 60 60 52
-0.281828 1.01535 0.788402 0.279322 -0.603892 -0.746521 98 96 87
-0.280879 1.01468 0.78752 0.625526 -0.132035 -0.76895 98 96 87
-0.27914 1.01518 0.789107 0.339141 -0.531391 -0.776278 93 92 82
-0.280997 1.01381 0.784755 0.439671 -0.195333 -0.876661 104 104 95
0.348672 1.05184 0.644497 0.00229862 -0.301322 -0.95352 53 53 46
0.350586 1.05175 0.644297 0.00253376 -0.323061 -0.946375 62 62 55
0.349698 1.05181 0.644434 0.00141558 -0.294319 -0.955706 56 55 48
0.353395 1.05235 0.645302 -0.0072118 -0.215299 -0.976522 67 66 59
-0.283019 1.01558 0.787539 0.580977 -0.517089 -0.628558 105 104 95
-0.281085 1.01622 0.788615 0.368621 -0.656596 -0.658027 96 94 85
-0.279898 1.01603 0.789418 0.455469 -0.659928 -0.59753 92 91 82
0.35035 1.05277 0.644156 0.00387073 -0.352849 -0.935672 57 58 52
0.349512 1.05285 0.644349 0.00491741 -0.382012 -0.924144 52 52 46
0.351313 1.05273 0.644059 0.00226051 -0.322991 -0.9464 62 62 55
-0.281992 1.01642 0.787647 0.357432 -0.611451 -0.705953 97 95 87
-0.280282 1.01689 0.788626 0.264369 -0.743753 -0.613954 93 91 83
0.34857 1.05389 0.644499 0.000244021 -0.27347 -0.96188 51 50 45
0.349387 1.05381 0.644324 0.00154337 -0.294523 -0.955643 53 53 47
0.352061 1.05372 0.643861 0.000382453 -0.29351 -0.955956 64 64 56
0.351059 1.05375 0.643939 0.00276574 -0.329478 -0.944159 59 60 53
0.352777 1.05471 0.643667 -0.00150961 -0.272086 -0.962272 66 65 58
-0.278508 1.01756 0.787813 0.26953 -0.786086 -0.556258 89 88 78
0.346577 1.05479 0.644159 -0.00236088 -0.224653 -0.974436 50 50 44
0.347619 1.05477 0.644107 0.00250185 -0.285926 -0.958249 51 51 46
0.349398 1.05465 0.643817 -0.0187023 -0.200433 -0.979529 54 53 48
0.348508 1.05471 0.643973 0.00280875 -0.297925 -0.954585 52 51 47
0.352146 1.05482 0.643945 -0.00376788 -0.238947 -0.971025 62 61 55
0.350284 1.05459 0.643656 0.00166494 -0.29827 -0.95448 56 55 49
0.352901 1.05557 0.643216 -0.0250745 -0.203401 -0.978774 67 65 60
0.35269 1.05579 0.643742 -0.00779742 -0.205074 -0.978715 64 63 58
0.356415 1.05609 0.64472 -0.0165132 -0.147768 -0.988884 71 70 64
-0.283048 1.01686 0.781392 0.289455 -0.155983 -0.944397 105 105 95
-0.277434 1.01829 0.785501 0.356627 -0.64973 -0.671318 88 87 77
0.348485 1.05583 0.644149 -0.0139931 -0.143158 -0.989601 51 50 46
0.34894 1.0562 0.645029 -0.00646374 -0.192424 -0.981291 50 50 45
0.348892 1.05615 0.644815 -0.00801232 -0.182461 -0.983181 51 50 45
0.349573 1.05581 0.644099 -0.0142868 -0.144556 -0.989394 53 52 47
0.351046 1.05675 0.643806 -0.017754 -0.128798 -0.991512 54 54 48
0.352424 1.05599 0.644223 -0.0328512 -0.188736 -0.981478 59 58 53
0.350175 1.05569 0.643785 -0.0170003 -0.132507 -0.991036 54 53 48
0.352744 1.05662 0.643316 -0.0853643 -0.17622 -0.980642 64 63 57
0.352497 1.05682 0.64389 -0.0825526 -0.144607 -0.98604 58 58 52
0.352432 1.05629 0.642459 -0.00558573 -0.233704 -0.972292 67 66 60
0.357793 1.057 0.644354 -0.0177908 -0.14562 -0.989181 78 78 72
0.350436 1.05687 0.644117 -0.0168477 -0.133011 -0.990971 53 52 47
0.349701 1.05697 0.644361 -0.00907272 -0.178277 -0.983938 51 51 46
0.352793 1.05747 0.642904 -0.0807478 -0.138544 -0.987059 64 63 58
0.350823 1.05676 0.641164 -0.0467248 -0.138952 -0.989196 66 65 59
0.358593 1.05805 0.644316 -0.0183229 -0.145509 -0.989187 81 80 73
0.358137 1.05821 0.644711 -0.0808252 -0.115765 -0.989983 73 73 66
0.364744 1.05922 0.646913 -0.014172 -0.176926 -0.984122 95 94 86
-0.282887 1.01866 0.784193 0.27199 -0.600785 -0.751718 100 99 89
-0.282936 1.01878 0.782539 0.267733 -0.602631 -0.751767 103 103 93
-0.283746 1.0179 0.78098 0.349599 -0.437723 -0.82836 105 106 96
0.352146 1.05897 0.644015 -0.0242179 -0.159513 -0.986899 53 52 47
0.351608 1.05911 0.64437 -0.00812 -0.191341 -0.98149 52 52 47
0.353229 1.05868 0.643331 -0.00858936 -0.200655 -0.979624 61 60 55
0.352862 1.05886 0.643759 -0.0182706 -0.130805 -0.99124 56 55 50
0.3513 1.05797 0.641615 -0.025063 -0.0999984 -0.994672 63 62 57
0.361348 1.05955 0.645316 -0.0185261 -0.14556 -0.989176 82 81 75
0.365254 1.06107 0.646219 -0.024879 -0.113941 -0.993176 98 97 88
0.365244 1.06107 0.646245 -0.0253192 -0.111206 -0.993475 98 97 88
-0.282959 1.01981 0.784554 0.386611 -0.66736 -0.636523 97 96 86
-0.283213 1.01979 0.783636 0.419903 -0.653521 -0.629755 99 98 88
-0.283191 1.01894 0.781075 0.428177 -0.485221 -0.762381 105 105 95
-0.283506 1.01878 0.779698 0.39191 -0.53392 -0.749224 105 105 95
0.355926 1.06144 0.647764 -0.0127042 -0.154278 -0.987946 51 51 46
0.353065 1.05975 0.643357 -0.015375 -0.214392 -0.976627 55 53 49
0.353455 1.05957 0.642936 -0.0172039 -0.218373 -0.975714 60 59 54
0.360354 1.06045 0.644963 -0.0184403 -0.145233 -0.989226 74 73 67
0.362095 1.06145 0.644782 -0.0192843 -0.145328 -0.989196 85 84 76
0.361293 1.0604 0.644822 -0.0188076 -0.14621 -0.989075 83 83 75
0.36543 1.06196 0.645813 -0.0103113 -0.215421 -0.976467 99 98 88
-0.282964 1.02089 0.785416 0.400751 -0.702865 -0.587691 94 93 83
-0.283351 1.01992 0.782062 0.283749 -0.704009 -0.651044 102 101 91
-0.284378 1.01902 0.778798 0.432552 -0.572839 -0.696243 106 106 96
-0.283469 1.02015 0.781922 0.368499 -0.698508 -0.613429 102 101 91
0.350812 1.06172 0.647555 -0.0696816 0.105193 -0.992008 48 48 43
0.353996 1.06152 0.648095 -0.011241 -0.153813 -0.988036 50 50 45
0.353047 1.06157 0.648223 -0.0120456 -0.14429 -0.989462 49 49 45
0.355158 1.06153 0.647992 -0.114736 -0.14338 -0.982994 50 51 45
0.355353 1.06268 0.648332 -0.00222072 -0.248574 -0.968611 51 51 47
0.353269 1.06195 0.646592 -0.000354588 -0.247109 -0.968988 50 51 45
0.352663 1.06153 0.645619 -0.0202847 -0.118412 -0.992757 50 51 45
0.358595 1.06172 0.645482 -0.0169443 -0.145654 -0.989191 63 61 55
0.360202 1.06155 0.645057 -0.0182471 -0.145278 -0.989223 71 70 63
0.359297 1.06161 0.645215 -0.0176363 -0.145009 -0.989273 67 65 60
0.362005 1.06256 0.64489 -0.0327359 -0.113724 -0.992973 78 78 71
0.361039 1.06261 0.645033 -0.0189092 -0.144002 -0.989397 71 70 64
0.363467 1.06288 0.645628 -0.014695 -0.175028 -0.984454 80 80 72
0.362256 1.06235 0.644438 -0.031706 -0.102607 -0.994217 86 85 77
-0.283757 1.02062 0.779893 0.366581 -0.709047 -0.602387 103 104 93
-0.284677 1.02014 0.778188 0.475531 -0.663139 -0.578029 106 107 97
-0.283492 1.02072 0.781754 0.431847 -0.709347 -0.557078 101 101 90
0.351884 1.0628 0.647546 -0.0132233 -0.274641 -0.961456 48 48 43
0.352601 1.0629 0.646372 -0.0300809 -0.397637 -0.91705 49 49 44
0.352354 1.06312 0.646894 -0.104133 -0.500063 -0.859705 48 48 43
0.356039 1.06288 0.646222 -0.0250075 -0.120758 -0.992367 53 53 48
0.354483 1.06253 0.645407 -0.00547749 -0.212808 -0.977079 52 52 47
0.357967 1.06307 0.64661 -0.0175832 -0.133579 -0.990882 55 55 48
0.360192 1.06268 0.645227 -0.0179402 -0.145415 -0.989208 67 66 59
0.360152 1.06328 0.6443 -0.105062 0.0238602 -0.994179 69 69 62
0.361917 1.06342 0.644496 -0.0358222 -0.093346 -0.994989 78 77 70
0.363397 1.06349 0.644619 -0.0168193 -0.165588 -0.986052 88 87 80
-0.283196 1.02189 0.784553 0.404904 -0.737626 -0.540335 94 94 84
-0.283305 1.02184 0.782402 0.408673 -0.75369 -0.514721 96 95 85
-0.283361 1.02163 0.780356 0.388731 -0.743307 -0.54441 99 99 89
0.3532 1.06362 0.645545 -0.00828618 -0.201917 -0.979368 49 49 44
0.352291 1.06365 0.645686 -0.0175158 -0.140882 -0.989871 48 48 43
0.353763 1.06348 0.645191 -0.0364551 -0.163141 -0.985929 50 51 45
0.357721 1.06387 0.646023 -0.0179219 -0.133697 -0.99086 55 54 48
0.358495 1.06462 0.645266 -0.00935733 -0.196807 -0.980398 57 56 51
0.3584 1.06375 0.645727 -0.0280707 -0.0816749 -0.996264 56 56 50
0.359733 1.06438 0.644502 -0.189743 -0.0771917 -0.978795 65 64 57
0.359534 1.06459 0.645189 -0.00984371 -0.197421 -0.980269 60 60 53
0.360458 1.06409 0.643528 -0.0160883 -0.167216 -0.985789 74 73 66
0.362747 1.06458 0.644718 -0.0576338 -0.421608 -0.904945 76 75 68
0.362728 1.06448 0.644502 -0.01915 -0.149578 -0.988564 78 77 70
-0.283997 1.02164 0.77897 0.474174 -0.664674 -0.57738 103 104 94
-0.284328 1.02156 0.777083 0.455236 -0.644716 -0.614085 105 106 96
-0.282154 1.02254 0.780085 0.236534 -0.850937 -0.468997 94 93 82
-0.281057 1.02264 0.782564 0.23746 -0.834173 -0.497763 91 89 79
-0.281142 1.02274 0.781725 0.279384 -0.828581 -0.485178 91 90 79
0.353067 1.06473 0.645688 -0.0312007 -0.056045 -0.997941 49 49 44
0.353702 1.0646 0.645352 -0.0409341 -0.0372567 -0.998467 50 50 45
0.357362 1.06492 0.646019 -0.0181139 -0.130993 -0.991218 54 54 49
0.359421 1.06569 0.645247 -0.00159425 -0.269003 -0.963138 58 57 52
0.360233 1.06486 0.642848 -0.00593925 -0.25141 -0.967863 76 74 69
-0.28336 1.02281 0.779342 0.426197 -0.683091 -0.593079 98 98 88
-0.282019 1.0227 0.780171 0.248251 -0.850338 -0.464001 93 92 82
-0.280509 1.0235 0.78288 0.343494 -0.821241 -0.455604 89 87 78
-0.279653 1.02343 0.78217 0.451448 -0.719842 -0.527277 88 86 77
-0.280208 1.02332 0.779222 0.155032 -0.722484 -0.673782 90 89 79
-0.279198 1.02328 0.779889 0.258873 -0.673878 -0.692006 89 87 77
0.353748 1.06577 0.645678 -0.0629833 0.0693261 -0.995604 49 49 44
0.354571 1.06567 0.645377 -0.0676938 -0.0288248 -0.99729 51 51 46
0.356541 1.06587 0.645772 -0.0179914 -0.131017 -0.991217 53 53 48
0.361427 1.0657 0.642241 -0.0153891 -0.182462 -0.983092 87 88 80
0.360789 1.06583 0.642581 -0.00681707 -0.25159 -0.96781 77 77 71
-0.284152 1.02274 0.777873 0.469534 -0.62457 -0.624059 104 105 93
-0.281741 1.02365 0.77876 0.257636 -0.697433 -0.668738 92 91 80
0.354779 1.06687 0.645811 -0.0785117 0.117985 -0.989907 50 50 45
0.354874 1.06661 0.64516 -0.159055 -0.110934 -0.981017 50 51 45
0.360547 1.06665 0.64209 -0.0455497 -0.0245537 -0.99866 76 76 70
-0.282606 1.02385 0.777699 0.3045 -0.647518 -0.698571 94 94 82
-0.280477 1.02438 0.778416 0.311805 -0.644466 -0.69817 90 90 78
0.355078 1.06815 0.646466 -0.0980072 0.175423 -0.979603 49 49 44
0.359391 1.06811 0.643091 -0.0332219 -0.0711094 -0.996915 62 60 55
0.358541 1.06819 0.643302 -0.0320351 -0.0735222 -0.996779 59 57 52
0.359618 1.06788 0.642556 -0.0325686 -0.0776297 -0.99645 66 64 59
0.359614 1.06788 0.642553 -0.03129 -0.0838012 -0.995991 66 64 59
0.361521 1.06777 0.642247 -0.0472524 -0.0165233 -0.998746 77 75 69
0.360525 1.06782 0.642402 -0.0419966 -0.0367005 -0.998444 70 68 63
-0.28185 1.02468 0.777811 0.167093 -0.66972 -0.723571 91 91 80
-0.280467 1.02443 0.774837 0.308867 -0.74161 -0.595496 92 91 80
-0.280452 1.02453 0.77483 0.306227 -0.735757 -0.604059 92 91 80
-0.279307 1.02514 0.778197 0.110661 -0.639435 -0.76084 87 86 75
0.358489 1.06933 0.643531 -0.0344489 -0.0620865 -0.997476 55 55 50
0.359684 1.06876 0.642184 -0.0329091 -0.0770611 -0.996483 65 63 58
0.359678 1.06876 0.642175 -0.0315 -0.0838732 -0.995978 65 63 58
0.359417 1.06898 0.642693 -0.0329078 -0.0743225 -0.996691 61 60 55
0.360525 1.06868 0.641966 -0.0359547 -0.0651519 -0.997227 70 69 63
0.36051 1.06868 0.64196 -0.0309149 -0.0895682 -0.995501 70 69 63
0.361662 1.06954 0.641492 -0.0316605 -0.0909207 -0.995355 79 77 70
0.361559 1.06865 0.641855 -0.0326928 -0.0838816 -0.995939 78 77 71
-0.280786 1.02555 0.774475 0.500101 -0.542609 -0.674888 92 89 80
0.358755 1.06969 0.641918 -0.0242282 -0.120448 -0.992424 62 61 55
0.357915 1.06977 0.642119 -0.0273965 -0.100875 -0.994522 58 57 52
0.360566 1.06956 0.641568 -0.0302666 -0.095194 -0.994999 71 69 63
0.3597 1.06963 0.641764 -0.0304256 -0.0912334 -0.995365 65 64 58
0.360454 1.07069 0.64174 -0.0176487 -0.164196 -0.98627 65 64 58
0.36245 1.0706 0.641487 -0.0316131 -0.0932659 -0.995139 79 78 71
0.361664 1.0707 0.641729 -0.0277648 -0.109762 -0.99357 71 70 64
-0.279479 1.02672 0.778318 0.335703 -0.711467 -0.617348 87 85 75
0.356157 1.0716 0.64459 -0.0380954 -0.0374026 -0.998574 50 49 44
0.357145 1.07156 0.644462 -0.025666 -0.0968547 -0.994968 51 50 45
0.358793 1.07139 0.644059 -0.0248746 -0.108699 -0.993764 54 53 47
0.358108 1.07151 0.644347 -0.024349 -0.106482 -0.994016 51 51 45
0.362052 1.07165 0.641468 -0.0317012 -0.0918111 -0.995272 73 71 66
0.362912 1.07158 0.641308 -0.0316387 -0.0950706 -0.994968 79 78 73
0.362922 1.07158 0.641285 -0.0369648 -0.0919102 -0.995081 80 78 73
-0.278697 1.02801 0.779365 0.459251 -0.686069 -0.564268 83 81 72
-0.279522 1.02779 0.777155 0.527008 -0.62403 -0.576931 86 83 74
0.356872 1.07236 0.643922 -0.0335019 -0.0616745 -0.997534 50 50 45
0.357888 1.07232 0.643799 -0.0251927 -0.105346 -0.994117 51 51 45
0.359767 1.0725 0.644142 -0.0213476 -0.12818 -0.991521 54 53 47
0.361099 1.07257 0.643528 -0.0300111 -0.0909669 -0.995402 56 55 50
0.361826 1.07332 0.642821 -0.0363626 -0.0647177 -0.997241 59 58 53
0.362288 1.07286 0.641768 -0.0225988 -0.139156 -0.990013 67 65 60
0.363818 1.07266 0.641305 -0.0200113 -0.161655 -0.986644 83 81 76
0.362598 1.07265 0.64129 -0.0227329 -0.144166 -0.989292 74 72 67
-0.278746 1.02909 0.77822 0.483717 -0.577837 -0.65736 83 81 72
0.357568 1.07312 0.643247 -0.0382695 -0.0445661 -0.998273 51 50 45
0.356714 1.0732 0.643466 -0.0416023 -0.0321252 -0.998618 50 49 44
0.360726 1.07393 0.644219 -0.076413 0.0844864 -0.99349 55 54 49
0.361564 1.07384 0.64397 -0.0498598 -0.00246665 -0.998753 56 54 49
0.361421 1.07352 0.643273 -0.0290725 -0.0967086 -0.994888 57 56 51
0.362086 1.07425 0.642498 -0.0433384 -0.0881869 -0.995161 60 58 54
0.361925 1.0745 0.643082 -0.0341226 -0.0736109 -0.996703 58 56 51
0.362294 1.07372 0.641313 -0.0226441 -0.141032 -0.989746 67 65 61
0.362245 1.074 0.641929 -0.0298876 -0.103203 -0.994211 63 61 57
0.362642 1.07351 0.640843 -0.0300241 -0.104981 -0.994021 75 72 68
0.364051 1.07386 0.641584 -0.0210869 -0.161413 -0.986662 75 74 69
0.365904 1.07403 0.641919 -0.0203141 -0.16176 -0.986621 85 83 78
-0.277823 1.0302 0.778777 0.6221 -0.383414 -0.682632 79 78 70
0.358447 1.07506 0.642833 -0.0262185 -0.10568 -0.994055 52 51 46
0.358295 1.07416 0.643184 -0.0284489 -0.124524 -0.991809 51 50 45
0.359867 1.07512 0.642972 0.00302669 -0.326774 -0.945098 55 54 49
0.361594 1.07472 0.643571 -0.0312178 -0.084157 -0.995963 56 55 50
0.36269 1.07555 0.64297 -0.0227924 -0.132907 -0.990866 58 56 50
0.362998 1.07504 0.641863 -0.016795 -0.17878 -0.983746 64 63 58
0.362722 1.07527 0.642351 -0.0170217 -0.179986 -0.983522 60 59 54
0.365044 1.07497 0.641652 -0.0243289 -0.138025 -0.99013 77 75 70
0.364003 1.075 0.641748 -0.0228802 -0.14207 -0.989592 68 67 62
-0.27863 1.03016 0.776918 0.579525 -0.522265 -0.625612 81 80 71
0.35742 1.07509 0.64294 -0.0223791 -0.122358 -0.992234 49 48 43
0.360062 1.07598 0.64244 0.00272015 -0.326661 -0.945138 53 52 47
0.363605 1.07634 0.64232 -0.00484669 -0.26764 -0.963507 62 62 56
0.362863 1.07644 0.642563 -0.0147064 -0.18395 -0.982826 58 57 52
0.36401 1.07616 0.641931 -0.00968543 -0.228405 -0.973518 65 64 58
0.366089 1.07609 0.64174 -0.0246467 -0.137335 -0.990218 80 77 70
0.368042 1.07629 0.641969 -0.167094 0.0193011 -0.985752 93 91 83
0.359676 1.07697 0.64218 0.00469607 -0.358309 -0.933591 53 52 47
0.359713 1.07698 0.642198 0.00441611 -0.357713 -0.933821 53 52 47
0.361409 1.07682 0.641869 0.00109336 -0.317597 -0.948225 56 56 50
0.360454 1.07687 0.641978 0.0040094 -0.359498 -0.933137 53 53 47
0.363279 1.07753 0.64264 0.0049517 -0.392712 -0.919648 58 57 51
0.365923 1.07736 0.642963 -0.00634208 -0.253277 -0.967373 64 64 58
0.367229 1.07722 0.641667 -0.0335109 -0.123222 -0.991813 83 82 74
0.368735 1.07733 0.641952 -0.0279214 -0.125699 -0.991675 93 92 83
0.358623 1.07781 0.641649 -0.00510946 -0.244404 -0.96966 51 51 45
0.360385 1.07767 0.641349 -0.00173852 -0.282922 -0.959141 54 54 48
0.359463 1.07773 0.641478 -0.00149429 -0.28051 -0.95985 52 52 46
0.359503 1.07775 0.641578 -0.00387874 -0.258174 -0.966091 52 52 46
0.361315 1.07761 0.641225 -0.00203884 -0.285004 -0.958524 56 57 51
0.361746 1.07742 0.640809 -0.00267333 -0.284385 -0.958706 60 60 54
0.366203 1.07873 0.642684 -0.0188022 -0.171072 -0.985079 64 64 57
0.366223 1.07873 0.642713 -0.0175108 -0.173575 -0.984665 64 64 57
0.367035 1.07834 0.641811 -0.036348 -0.0851131 -0.995708 75 73 66
0.36602 1.07838 0.641948 -0.0204006 -0.161016 -0.986741 68 66 59
0.36814 1.07835 0.641852 -0.0171148 -0.192495 -0.981149 83 81 74
0.368912 1.07939 0.641746 -0.0453801 -0.0446215 -0.997973 85 84 77
0.359514 1.0786 0.641093 -0.0162964 -0.173852 -0.984637 52 52 46
0.358503 1.07864 0.641193 -0.0144359 -0.179574 -0.983639 52 52 46
0.360953 1.07837 0.640577 -0.0235589 -0.136398 -0.990374 56 56 50
0.360815 1.07864 0.641147 -0.0150803 -0.180819 -0.983401 53 54 47
0.361676 1.0794 0.640464 -0.016761 -0.176671 -0.984127 57 57 50
0.366146 1.07929 0.641594 -0.0342572 -0.0889409 -0.995448 68 66 60
0.367176 1.07925 0.641471 -0.0363109 -0.0824172 -0.995936 74 72 66
0.367419 1.08019 0.641259 -0.0247618 -0.142131 -0.989538 73 72 65
0.368675 1.08002 0.640825 -0.0608183 -0.110916 -0.991967 92 90 83
0.359488 1.08003 0.64185 -0.0435029 -0.0353051 -0.998429 51 51 45
0.358775 1.07985 0.641473 -0.0470582 -0.019967 -0.998693 50 50 44
0.359357 1.0797 0.641153 -0.0214528 -0.140006 -0.989918 51 51 45
0.360658 1.07945 0.640606 -0.021881 -0.143162 -0.989457 53 53 47
0.361756 1.08028 0.640047 -0.0240825 -0.136898 -0.990293 57 57 51
0.361619 1.08054 0.640586 -0.0245737 -0.13251 -0.990877 55 56 49
0.360779 1.08033 0.640177 -0.0242013 -0.133272 -0.990784 55 55 49
0.367595 1.08174 0.642767 -0.0356734 -0.146468 -0.988572 62 63 56
0.367219 1.08073 0.642398 -0.010674 -0.224474 -0.974422 65 65 58
0.369212 1.08106 0.640698 -0.00342983 -0.312391 -0.949947 93 92 84
0.360549 1.08087 0.641332 -0.0319924 -0.0911961 -0.995319 52 52 46
0.36063 1.08145 0.640296 -0.0305036 -0.100548 -0.994465 53 53 47
0.360708 1.08061 0.640765 -0.0279876 -0.111752 -0.993342 53 53 47
0.361651 1.08141 0.640177 -0.0315959 -0.0977432 -0.99471 55 55 49
0.36231 1.08128 0.63988 -0.0244091 -0.137413 -0.990213 58 57 51
0.368185 1.08275 0.642602 0.000893354 -0.331776 -0.943358 63 63 57
0.368423 1.08167 0.640619 -0.173854 -0.549186 -0.817416 83 81 74
0.358532 1.08183 0.641226 -0.0607505 0.0296837 -0.997712 49 49 44
0.358995 1.08163 0.640746 -0.0701872 0.059797 -0.99574 51 50 45
0.361208 1.08275 0.640776 -0.0245384 -0.129314 -0.9913 51 51 45
0.359777 1.08153 0.640501 -0.0319026 -0.0911342 -0.995327 51 51 45
0.362322 1.08244 0.640072 -0.0247653 -0.135637 -0.990449 55 55 49
0.361528 1.08253 0.640299 -0.0244533 -0.134228 -0.990649 54 53 47
0.367098 1.08329 0.64206 -0.00413474 -0.275931 -0.961169 61 60 54
0.366997 1.08319 0.641661 -0.00510678 -0.268738 -0.9632 62 62 56
0.36705 1.08336 0.641926 -0.00358123 -0.280125 -0.959957 61 60 54
0.367037 1.08335 0.641919 -0.00350451 -0.282037 -0.959397 61 60 54
0.368938 1.08339 0.642057 -0.00559859 -0.271009 -0.96256 67 66 60
0.369894 1.08316 0.64156 -0.0251014 -0.144465 -0.989192 75 74 69
0.36906 1.08258 0.640165 -0.0137691 -0.219745 -0.97546 87 88 81
-0.283131 1.03494 0.775021 0.395964 -0.664691 -0.63356 83 83 73
0.358319 1.08292 0.641239 -0.0378811 -0.0588262 -0.997549 47 48 42
0.355653 1.08223 0.639826 -0.00709489 -0.262601 -0.964879 47 47 42
0.359437 1.08291 0.641159 -0.0383092 -0.0592167 -0.99751 49 50 44
0.360251 1.08281 0.640918 -0.0390258 -0.0594496 -0.997468 50 50 44
0.361123 1.08389 0.640925 -0.0201975 -0.151081 -0.988315 50 50 45
0.362336 1.08357 0.640163 -0.00900048 -0.229243 -0.973328 54 53 48
0.363277 1.08351 0.640031 -0.0118541 -0.22847 -0.973479 56 55 49
0.366797 1.08397 0.640972 -0.00863105 -0.242337 -0.970154 64 63 57
0.369327 1.08382 0.640522 -0.037412 -0.110995 -0.993117 80 79 74
0.372143 1.08524 0.641412 -0.029869 -0.125599 -0.991631 85 84 78
0.370639 1.08501 0.640775 -0.104889 -0.0715768 -0.991905 81 79 74
-0.283747 1.03478 0.772861 0.330243 -0.609534 -0.720699 86 86 76
-0.281812 1.03567 0.774482 0.358552 -0.377536 -0.853761 81 80 70
0.356013 1.0835 0.640295 -0.0427993 -0.0576538 -0.997419 47 47 41
0.356358 1.08359 0.640477 -0.0815581 0.0420794 -0.99578 46 46 41
0.356551 1.08333 0.639907 -0.0396536 -0.0547116 -0.997715 47 47 42
0.364001 1.08452 0.639811 -0.00273487 -0.29005 -0.957008 57 56 50
0.369309 1.08498 0.640731 -0.0285696 -0.131188 -0.990946 74 72 67
0.373052 1.08633 0.641381 -0.0198339 -0.183603 -0.9828 88 87 79
0.373066 1.08631 0.6413 -0.022715 -0.169527 -0.985264 89 89 80
0.373294 1.08637 0.64152 -0.0190114 -0.187606 -0.98206 88 87 79
0.373978 1.08622 0.641111 -0.0394882 -0.137539 -0.989709 100 101 92
-0.283904 1.0359 0.772391 0.28727 -0.736402 -0.612526 86 85 76
-0.281955 1.03672 0.773759 0.265502 -0.862047 -0.431722 80 80 70
0.355771 1.0843 0.639773 -0.14389 0.0354814 -0.988957 48 47 42
0.357576 1.08446 0.640059 -0.0167521 -0.166975 -0.985819 48 48 43
0.363099 1.0854 0.639354 -0.00274646 -0.286582 -0.958052 54 53 48
0.369723 1.08652 0.64195 -0.0426694 -0.124305 -0.991326 66 64 58
0.368672 1.08644 0.641708 -0.0693083 -0.124291 -0.989822 63 61 55
0.370738 1.08766 0.642064 -0.0378773 -0.0815522 -0.995949 65 64 56
0.371626 1.08763 0.642444 -0.0136717 -0.213479 -0.976852 66 65 58
0.371994 1.08747 0.641846 -0.156489 -0.150401 -0.976161 71 69 63
0.372701 1.08734 0.641347 -0.135413 -0.148059 -0.979664 81 80 72
0.372646 1.08735 0.641426 -0.143741 -0.1322 -0.980745 80 78 71
0.37371 1.08731 0.64113 -0.0267144 -0.16324 -0.986225 92 92 83
0.373581 1.0873 0.641161 -0.0194432 -0.187401 -0.982091 90 90 81
-0.283014 1.03681 0.772602 0.466396 -0.635822 -0.614984 83 83 73
0.363149 1.08653 0.639398 -0.0175136 -0.183005 -0.982956 54 53 47
0.362893 1.08677 0.639897 -0.0156141 -0.186536 -0.982324 52 51 46
0.369416 1.08756 0.641856 -0.020012 -0.170828 -0.985098 62 60 53
0.368096 1.08746 0.641581 -0.0250862 -0.140177 -0.989809 59 58 52
0.372338 1.08866 0.642283 -0.205417 -0.169357 -0.96391 68 66 59
0.37251 1.08842 0.641574 -0.188298 -0.082738 -0.978621 73 71 65
0.373761 1.08818 0.64067 -0.0257028 -0.154536 -0.987653 94 93 85
-0.28383 1.0367 0.770737 0.423065 -0.663405 -0.617178 87 86 77
-0.283353 1.03673 0.770755 0.417877 -0.67602 -0.60694 85 85 76
-0.282156 1.03796 0.773272 0.60325 -0.470559 -0.643944 80 80 70
0.365295 1.08859 0.641895 -0.0425669 -0.0514691 -0.997767 52 52 47
0.362945 1.08763 0.639424 -0.0159948 -0.186952 -0.982239 53 52 47
0.366974 1.08869 0.641805 -0.211734 0.287001 -0.934237 55 55 50
0.368746 1.08851 0.641531 -0.0209481 -0.171555 -0.984952 60 58 53
0.369354 1.08958 0.64156 -0.0167161 -0.206984 -0.978201 59 59 52
0.372699 1.08931 0.641202 -0.10803 -0.0778052 -0.991098 74 71 65
-0.283271 1.03785 0.771516 0.335425 -0.605852 -0.72141 84 83 74
-0.28316 1.03767 0.769494 0.285069 -0.502689 -0.816113 85 84 75
-0.283017 1.03787 0.771516 0.201729 -0.602204 -0.772435 83 82 73
0.366531 1.08975 0.64209 -0.231909 -0.228922 -0.945417 52 53 47
0.363487 1.08892 0.639836 0.000546217 -0.310199 -0.950672 52 52 47
0.362555 1.08899 0.639959 0.00105706 -0.30886 -0.951107 50 50 45
0.373006 1.09025 0.640924 -0.0505443 -0.103955 -0.993297 73 72 65
-0.282724 1.03873 0.771008 0.561982 -0.495679 -0.662177 82 82 73
0.367107 1.09077 0.641927 -0.0488073 -0.0333705 -0.998251 53 52 47
0.369775 1.09096 0.639762 -0.0194706 -0.182396 -0.983032 65 63 57
-0.283608 1.03901 0.769965 0.505685 -0.538149 -0.674298 85 84 75
0.369055 1.09172 0.639213 -0.0431201 -0.25137 -0.96693 63 62 55
0.368831 1.09197 0.639749 -0.0506254 -0.144899 -0.988151 60 59 53
0.369823 1.09142 0.638302 -0.0302828 -0.130937 -0.990928 73 72 67
0.373885 1.09267 0.638432 -0.201638 -0.0681891 -0.977084 100 101 93
0.373253 1.09183 0.638988 -0.131061 -0.118028 -0.984323 91 91 85
-0.284195 1.04046 0.770376 0.127773 -0.229198 -0.964957 84 82 74
-0.28285 1.04021 0.770785 0.616705 -0.339991 -0.709986 82 81 73
0.368783 1.09278 0.639152 -0.148453 -0.0984915 -0.984003 61 60 54
0.370242 1.09266 0.638945 -0.0202568 -0.182639 -0.982971 67 66 58
0.373511 1.09388 0.639298 -0.0364276 -0.108944 -0.99338 77 77 70
0.372478 1.09297 0.639233 -0.263604 -0.0111785 -0.964566 76 74 68
0.374484 1.09401 0.639283 -0.483507 -0.0316039 -0.87477 86 86 78
0.373674 1.09297 0.639187 -0.0542896 -0.0435216 -0.997576 85 84 78
-0.285491 1.04049 0.770373 0.578992 -0.499281 -0.644582 85 84 76
0.371431 1.09484 0.639506 -0.0222247 -0.170561 -0.985097 64 63 58
0.36956 1.09382 0.639089 -0.0227779 -0.165401 -0.985963 62 61 56
0.371714 1.09466 0.638649 -0.44478 -0.268785 -0.854356 70 69 62
0.373099 1.09396 0.639029 -0.0448242 -0.0702574 -0.996521 77 76 69
0.373021 1.09469 0.638993 -0.518812 -0.25318 -0.816538 75 75 68
0.374069 1.09469 0.638657 -0.296848 -0.156215 -0.942061 86 86 79
-0.285938 1.04139 0.76856 0.545325 -0.33913 -0.766559 87 86 78
0.37356 1.09555 0.638143 -0.0307109 -0.160069 -0.986628 85 84 78
0.372336 1.09562 0.638356 -0.0307554 -0.133893 -0.990519 73 72 65
0.371316 1.09504 0.637362 -0.566354 -0.2045 -0.798388 78 76 71
0.376535 1.09622 0.639517 -0.0170238 -0.216453 -0.976145 92 92 85
0.371122 1.09627 0.637554 -0.0322698 -0.127118 -0.991362 70 68 64
0.373651 1.09636 0.637551 -0.0891301 -0.313816 -0.945291 91 90 83
-0.286293 1.04256 0.767961 0.481253 -0.315295 -0.817915 86 86 78
-0.285598 1.04226 0.767455 0.597181 -0.237794 -0.766047 85 84 77
0.371371 1.09767 0.63838 -0.203715 -0.160098 -0.965851 63 63 58
0.372754 1.09775 0.638299 -0.0104662 -0.252079 -0.96765 68 67 63
0.374118 1.09752 0.637729 -0.0842498 -0.170579 -0.981736 86 85 78
0.374542 1.09731 0.637292 -0.0264544 -0.165935 -0.985782 97 97 89
-0.286138 1.04321 0.766701 0.568784 -0.327457 -0.754491 86 86 77
-0.285363 1.04336 0.766649 0.633873 -0.188062 -0.750226 84 84 76
0.370566 1.09903 0.639041 -0.150963 -0.162788 -0.975044 56 55 50
0.371907 1.09876 0.638359 -0.0162742 -0.21528 -0.976417 63 63 58
0.37277 1.09867 0.638175 -0.0159481 -0.218168 -0.975781 68 66 61
0.373909 1.09839 0.63739 -0.0768861 -0.109228 -0.991039 83 83 75
0.371381 1.10008 0.638942 -0.0836084 -0.157538 -0.983967 57 57 51
0.373186 1.09963 0.637864 -0.0212438 -0.20615 -0.97829 69 68 62
0.372686 1.09981 0.638241 -0.015193 -0.224406 -0.974377 63 63 57
0.371374 1.09965 0.6379 -0.73101 -0.171658 -0.660422 61 61 55
0.373811 1.09955 0.637556 -0.0295666 -0.146157 -0.98882 75 74 67
0.377025 1.1008 0.637792 -0.00701632 -0.297835 -0.954592 93 93 85
0.376547 1.09985 0.6381 -0.240534 -0.0856313 -0.966856 89 90 81
0.374946 1.09954 0.637474 -0.0449895 -0.116309 -0.992194 85 85 76
0.377949 1.10086 0.637794 -0.0178389 -0.220412 -0.975244 99 99 90
-0.286583 1.04436 0.765922 0.627987 -0.286977 -0.723379 87 86 76
-0.286053 1.04432 0.765836 0.628518 -0.111224 -0.769802 85 85 76
-0.284906 1.04478 0.76677 0.636363 -0.122068 -0.76167 82 82 73
0.373049 1.10112 0.638866 -0.239198 0.0377969 -0.970235 58 58 51
0.372014 1.10095 0.638453 -0.0705574 -0.154605 -0.985454 57 57 50
0.373783 1.10148 0.637947 -0.102186 -0.0811343 -0.991451 66 66 58
0.374709 1.10082 0.638372 -0.211491 0.0896724 -0.973258 69 67 61
0.373679 1.1007 0.637663 -0.0290284 -0.147861 -0.988582 68 67 60
0.375622 1.10062 0.637575 -0.219338 0.0817718 -0.972216 84 84 76
