ply
format ascii 1.0
element vertex 733
property float x
property float y
property float z
property float nx
property float ny
property float nz
property uchar diffuse_red
property uchar diffuse_green
property uchar diffuse_blue
end_header
0.18784 1.64109 1.61953 0.160104 0.521075 -0.83836 3 18 16
0.187643 1.64275 1.62499 0.200485 0.462603 -0.8636 4 19 17
0.191058 1.64244 1.62022 -0.0410462 0.593116 -0.80407 4 19 17
0.193996 1.6409 1.61569 -0.0558358 0.530786 -0.845664 4 18 16
0.197623 1.64261 1.61928 0.169656 0.408341 -0.896925 3 19 17
0.205535 1.64117 1.59765 -0.0554016 -0.385079 -0.921219 3 19 16
0.217075 1.64285 1.60483 0.196045 -0.439382 -0.876647 4 19 15
0.220311 1.64278 1.60378 0.212867 -0.389264 -0.896192 4 19 16
0.218964 1.64295 1.6055 0.190174 -0.451983 -0.871519 4 19 16
0.226994 1.64333 1.60648 -0.538876 -0.476905 -0.694388 4 19 16
0.230173 1.64344 1.60446 -0.519477 -0.509197 -0.686194 4 18 16
0.233373 1.64368 1.60246 -0.521771 -0.508408 -0.685037 4 19 16
0.248619 1.64327 1.60839 -0.0340256 -0.0714662 -0.996862 5 20 17
0.253042 1.64349 1.61046 0.219208 -0.320103 -0.921673 5 21 18
0.256183 1.64346 1.60934 0.223179 -0.300462 -0.927315 5 20 17
0.265899 1.64302 1.61168 -0.0698387 -0.0156727 -0.997435 7 21 19
0.269004 1.64301 1.61108 0.0417664 -0.130736 -0.990537 8 21 18
0.269017 1.6431 1.61132 0.0041798 -0.0652706 -0.997859 8 21 18
0.272638 1.64307 1.61065 0.0309902 -0.328641 -0.943946 10 23 19
0.278603 1.64097 1.60995 -0.472578 -0.224764 -0.852145 16 23 17
0.281551 1.64097 1.60813 -0.511355 -0.222146 -0.830161 74 72 64
0.28285 1.64355 1.60618 -0.690912 -0.191029 -0.697244 98 95 88
-0.159595 1.64516 1.61333 -0.41541 0.0230409 -0.909342 78 82 77
-0.156293 1.64488 1.61179 -0.416402 0.0278279 -0.908755 30 39 38
-0.152309 1.6449 1.61206 -0.276137 0.0579145 -0.959372 9 21 20
-0.144311 1.64504 1.60877 0.455521 0.325414 -0.828617 5 18 16
-0.142047 1.64501 1.60858 0.405566 0.34379 -0.84695 5 18 16
-0.129923 1.64659 1.60955 0.357657 -0.0126088 -0.933768 8 19 17
-0.126156 1.64661 1.61082 0.131401 -0.0080252 -0.991297 1 3 3
-0.121264 1.64502 1.61182 0.259725 -0.00759264 -0.965653 1 1 1
-0.117965 1.64502 1.61226 0.205326 -0.0807325 -0.975358 1 1 1
-0.11785 1.64504 1.61227 0.210674 -0.0850791 -0.973847 1 1 1
-0.111676 1.64553 1.6135 0.182873 -0.0648353 -0.980996 21 23 13
-0.108235 1.64553 1.6141 0.165575 -0.0618733 -0.984254 24 27 16
-0.104914 1.64553 1.61449 0.107189 -0.0524463 -0.992854 24 26 16
-0.10148 1.64561 1.61491 0.112853 -0.096366 -0.988928 12 14 7
-0.098153 1.64561 1.61551 0.109608 -0.0335485 -0.993409 2 2 1
-0.0946211 1.64556 1.61514 -0.0511657 0.0450471 -0.997674 1 0 0
-0.0909283 1.64538 1.61449 0.226536 0.271123 -0.935507 1 2 1
-0.0874216 1.64548 1.61566 0.150765 -0.327242 -0.932836 3 4 3
-0.086967 1.64527 1.61565 0.141649 -0.252606 -0.957145 3 4 3
-0.0838815 1.64529 1.61583 0.0936202 -0.220346 -0.970919 2 3 2
-0.0842875 1.64548 1.61559 0.0897999 -0.0713074 -0.993404 2 3 2
-0.0838901 1.64529 1.61583 0.0940154 -0.22044 -0.970859 2 3 2
-0.0810942 1.64547 1.6156 0.090629 9.97353e-005 -0.995885 3 2 1
-0.08086 1.64528 1.61558 0.0864725 0.000323096 -0.996254 2 2 1
-0.0777552 1.64547 1.61582 0.0784256 0.0282024 -0.996521 6 7 4
-0.0707225 1.64532 1.61656 0.102833 0.166827 -0.980609 19 21 12
-0.067043 1.64532 1.61718 0.078972 0.165506 -0.983042 22 23 13
-0.0637655 1.64532 1.61722 0.104044 0.0485469 -0.993387 24 26 15
-0.0603132 1.64531 1.61741 0.176229 -0.154601 -0.972133 25 26 16
-0.0546484 1.64536 1.61818 0.128009 -0.10956 -0.985703 24 26 16
-0.050918 1.64543 1.61848 0.04473 -0.0467764 -0.997903 18 22 14
-0.0470363 1.64552 1.61856 0.0553588 -0.018242 -0.9983 12 18 14
-0.0423203 1.64553 1.61907 0.132003 -0.0408279 -0.990408 8 14 12
-0.0357679 1.64515 1.61947 0.0519582 -0.0553818 -0.997112 5 5 3
-0.0320562 1.64504 1.61967 0.00698593 -0.0543438 -0.998498 3 4 2
-0.0323363 1.64514 1.61966 0.0284118 -0.0887069 -0.995653 3 4 2
-0.0288839 1.64504 1.61939 -0.0235507 -0.144387 -0.989241 7 8 6
-0.0244641 1.64492 1.61974 -0.0220586 -0.175507 -0.984231 6 10 9
-0.0211867 1.64492 1.61955 -0.0191207 -0.106821 -0.994094 2 8 8
-0.0177181 1.64524 1.6199 0.0632018 -0.0993295 -0.993045 1 8 8
-0.0141779 1.64519 1.61973 0.0943175 -0.0244024 -0.995243 1 9 9
-0.010472 1.6452 1.62014 0.0335614 -0.0392215 -0.998667 7 12 11
-0.00616688 1.64455 1.62021 0.0198127 -0.0927119 -0.995496 10 16 14
-0.00280797 1.64455 1.62023 0.0237447 -0.0254984 -0.999393 11 16 14
0.00150352 1.64495 1.62055 0.0289213 -0.0169 -0.999439 6 10 10
0.00483016 1.64496 1.62157 0.15156 0.192199 -0.969582 2 6 7
0.00854249 1.64499 1.62217 0.152174 0.220984 -0.963332 0 4 6
0.0125352 1.645 1.6235 0.198204 0.354769 -0.913703 0 4 5
0.015519 1.64499 1.6195 -0.0282573 -0.472084 -0.881101 0 3 4
0.0189956 1.64491 1.62054 0.239432 -0.573297 -0.783583 0 3 4
0.026208 1.6451 1.62074 0.0102801 -0.108499 -0.994044 0 3 4
0.0292093 1.64511 1.62167 0.0774411 -0.0617823 -0.995081 0 3 4
0.0327014 1.64511 1.62189 0.0672808 -0.102059 -0.992501 1 3 4
0.03637 1.6451 1.62213 0.0539647 -0.130745 -0.989946 12 13 9
0.0396268 1.6451 1.62259 0.0101695 -0.0838269 -0.996428 14 15 9
0.0428718 1.6451 1.62302 -0.0161949 0.178147 -0.983871 20 19 13
0.0464784 1.6451 1.62281 -0.0417894 0.165075 -0.985395 28 24 17
0.0496315 1.64511 1.62348 0.0642589 -0.0630869 -0.995937 29 24 17
0.0565751 1.64521 1.62385 -0.121128 -0.192355 -0.973821 30 25 19
0.0621494 1.64639 1.62345 0.00879285 -0.224185 -0.974507 28 24 17
0.0655593 1.64639 1.62354 0.0233263 -0.210056 -0.977411 29 24 17
0.069011 1.64639 1.62344 -0.0475195 -0.139034 -0.989147 19 17 10
0.0724055 1.64639 1.62339 -0.0123726 -0.106458 -0.99424 13 12 6
0.0758199 1.64639 1.62319 -0.047943 -0.062377 -0.996901 25 22 16
0.0789241 1.64638 1.62288 -0.0671101 0.00217309 -0.997743 30 25 18
0.0791 1.6463 1.62302 -0.0516826 -0.0483662 -0.997492 30 25 18
0.0857473 1.64628 1.62263 0.0804245 0.17833 -0.980678 31 26 20
0.0890436 1.64637 1.62236 0.276922 0.212856 -0.93702 30 25 19
0.0925587 1.64649 1.62346 -0.0895077 -0.0541526 -0.994513 28 24 17
0.0961277 1.64641 1.62318 -0.261302 -0.286539 -0.921746 28 24 17
0.0994248 1.64643 1.62304 -0.0423298 -0.078981 -0.995977 26 22 15
0.100986 1.64406 1.62297 -0.22504 0.0830836 -0.970801 29 25 17
0.104257 1.64406 1.6232 0.0502757 0.0325284 -0.998206 28 25 18
0.107156 1.64405 1.62315 0.0834118 0.000834518 -0.996515 28 25 18
0.111114 1.64406 1.62322 -0.0985576 0.0591894 -0.99337 26 24 17
0.112239 1.64702 1.6225 0.0384691 -0.203355 -0.978349 29 24 16
0.120612 1.64421 1.623 -0.0893445 -0.186316 -0.978419 9 11 6
0.127286 1.64431 1.62275 0.0201557 -0.237591 -0.971156 0 1 0
0.130637 1.64431 1.62244 0.00741151 -0.170763 -0.985284 0 0 0
0.132331 1.64705 1.62212 -0.0328907 -0.0959613 -0.994841 1 1 0
0.130827 1.64423 1.62259 -0.0631297 -0.133173 -0.98908 0 0 0
0.135635 1.64705 1.62201 -0.0601081 -0.0799927 -0.994982 0 0 0
0.138973 1.64705 1.62169 -0.176925 -0.0564998 -0.982601 0 0 0
0.140716 1.64402 1.6214 -0.038708 -0.280465 -0.959084 1 1 1
0.144126 1.64402 1.62161 -0.0857428 -0.184487 -0.979088 4 6 4
0.147524 1.64403 1.62173 -0.00329835 -0.11957 -0.99282 6 8 6
0.150731 1.64403 1.62175 -0.0165429 -0.127184 -0.991741 3 6 5
0.157969 1.64437 1.62177 0.18474 -0.0318948 -0.98227 4 19 14
0.275627 1.64391 1.60912 -0.018078 -0.257949 -0.96599 11 23 20
0.277399 1.64669 1.60896 -0.287451 -0.202554 -0.936132 12 24 22
0.280016 1.64393 1.60871 -0.687459 -0.196672 -0.699086 26 31 27
-0.159089 1.64841 1.60926 0.172877 -0.243656 -0.95433 74 78 72
-0.157781 1.64844 1.61272 0.177418 -0.207534 -0.962005 47 53 49
-0.153764 1.64788 1.61174 -0.2756 -0.0672421 -0.958918 12 23 22
-0.150749 1.64796 1.61103 -0.323003 -0.13279 -0.937036 9 22 20
-0.147759 1.64801 1.61221 -0.405396 -0.164014 -0.899307 8 20 18
-0.144458 1.648 1.61085 0.337483 0.354673 -0.871959 5 18 16
-0.140793 1.64798 1.61058 0.420175 0.40208 -0.813501 3 13 11
-0.141941 1.64817 1.60792 0.241063 0.449149 -0.860322 4 13 12
-0.130826 1.64989 1.60882 0.506181 -0.0109497 -0.862358 13 22 19
-0.125924 1.64995 1.61087 0.501603 -0.0307187 -0.864553 4 6 5
-0.122587 1.64827 1.61112 0.241776 -0.0474453 -0.969172 1 1 0
-0.119196 1.6481 1.61221 0.43083 0.246481 -0.86812 2 2 1
-0.115938 1.64809 1.61261 0.241369 -0.133261 -0.96124 1 2 0
-0.106586 1.64847 1.61418 0.116548 -0.00866835 -0.993147 24 26 16
-0.103218 1.64847 1.6146 0.123911 -0.0489275 -0.991086 24 26 14
-0.0997623 1.64849 1.61514 0.121799 -0.0413705 -0.991692 19 21 13
-0.0997371 1.64847 1.61518 0.115347 -0.0573198 -0.99167 19 21 13
-0.0964619 1.64847 1.6154 0.0779799 -0.0939044 -0.992523 6 6 3
-0.0926643 1.6483 1.61539 -0.0683576 -0.110208 -0.991555 1 1 1
-0.089636 1.64828 1.6149 0.0814008 0.29369 -0.952429 2 3 1
-0.0865333 1.64827 1.6148 0.174812 0.254141 -0.951238 6 7 4
-0.0831551 1.64826 1.61536 0.196056 0.203957 -0.959147 13 14 8
-0.0794721 1.64827 1.61599 0.103098 0.231764 -0.967293 20 21 13
-0.0759031 1.64828 1.61653 0.0117908 0.11452 -0.993351 22 23 14
-0.0725067 1.64828 1.61681 0.0531217 0.037309 -0.997891 23 24 14
-0.0691177 1.64828 1.61706 0.0510707 0.0210772 -0.998473 24 26 15
-0.0655845 1.64834 1.61709 -0.0367582 -0.0569177 -0.997702 24 26 14
-0.0620059 1.64829 1.61745 0.0849595 -0.000600357 -0.996384 24 26 14
-0.0585362 1.64828 1.61742 0.00818067 -0.101436 -0.994808 23 25 14
-0.0528472 1.64838 1.61811 0.0531074 0.021878 -0.998349 10 16 13
-0.0493373 1.64836 1.61824 -0.0019125 0.0615484 -0.998102 6 13 13
-0.0440022 1.64852 1.61875 0.0924452 -0.0581893 -0.994016 6 14 13
-0.0378107 1.64814 1.61873 0.154198 -0.143489 -0.977565 5 9 9
-0.0340716 1.64814 1.61933 0.156422 -0.0815567 -0.984317 2 2 1
-0.0305853 1.6481 1.61949 -0.105816 -0.17537 -0.978799 1 1 0
-0.0252692 1.64766 1.61923 0.0352318 -0.214228 -0.976148 2 3 2
-0.0219129 1.64757 1.61922 0.0716224 -0.173499 -0.982226 3 9 7
-0.0183156 1.64758 1.6195 0.122605 -0.263889 -0.956729 2 9 9
-0.0141299 1.64775 1.61973 0.0764457 -0.062007 -0.995144 3 10 9
-0.00821459 1.64755 1.61994 0.0677256 -0.0640459 -0.995646 14 17 14
-0.00462796 1.64756 1.62029 0.0566267 0.0822036 -0.995006 4 7 7
0.00340209 1.64982 1.62529 -0.354792 0.532998 -0.768138 0 3 4
0.0067127 1.6479 1.62487 0.127514 0.590919 -0.796589 0 3 4
0.0140298 1.64779 1.62346 -0.406119 0.467708 -0.785058 0 3 4
0.0201769 1.64981 1.62191 -0.201557 0.261838 -0.94383 0 2 3
0.0256717 1.64982 1.62177 0.0341893 0.227347 -0.973213 0 3 4
0.0306691 1.64802 1.62219 -0.070962 -0.0690381 -0.995087 0 3 4
0.0342321 1.64802 1.62204 -0.0182261 -0.100461 -0.994774 1 6 6
0.0448148 1.64811 1.6232 -0.0709955 0.211146 -0.974873 10 16 11
0.0484177 1.64811 1.62282 0.0414901 -0.0352287 -0.998518 17 18 12
0.0515997 1.64811 1.62332 0.0777583 -0.200125 -0.97668 25 22 14
0.0549791 1.64811 1.62353 0.0354866 -0.0367945 -0.998693 28 24 16
0.0585225 1.64797 1.62343 -0.145312 -0.246852 -0.958097 27 23 16
0.0638571 1.64931 1.62299 -0.0151909 -0.160632 -0.986898 25 21 14
0.0672064 1.64931 1.6231 -0.0504046 -0.13663 -0.989339 18 15 9
0.0706348 1.64931 1.62301 -0.0249639 -0.120854 -0.992356 3 3 0
0.0743167 1.64928 1.62298 -0.0182563 -0.131848 -0.991102 2 3 1
0.0776448 1.64928 1.62295 0.0068022 -0.148067 -0.988954 10 10 5
0.0809479 1.64927 1.62288 -0.0543448 -0.0747854 -0.995718 23 20 13
0.0841575 1.64925 1.62275 -0.0578371 -0.0480681 -0.997168 27 22 15
0.0877085 1.64924 1.62256 0.0146486 -0.0598303 -0.998101 27 23 15
0.0911836 1.64923 1.62243 0.10507 -0.169562 -0.979903 30 25 18
0.0942775 1.64923 1.62301 -0.245662 -0.291723 -0.924418 28 23 16
0.0975868 1.64924 1.62255 -0.203719 -0.295844 -0.93326 27 22 15
0.101922 1.6495 1.62274 -0.0419504 -0.154971 -0.987028 27 22 15
0.105277 1.6495 1.62256 -0.155615 0.0185308 -0.987644 29 24 16
0.111118 1.64981 1.62245 -0.0226481 -0.177229 -0.983909 31 24 17
0.114231 1.65002 1.62229 -0.217615 -0.230972 -0.948312 29 21 13
0.116008 1.64716 1.62253 -0.0357592 -0.173231 -0.984232 32 26 17
0.119233 1.64716 1.62259 -0.101206 0.0352722 -0.99424 41 32 22
0.122591 1.64716 1.62231 -0.105502 0.0438884 -0.99345 37 30 19
0.12586 1.64716 1.62221 -0.0590891 -0.0284767 -0.997846 22 18 11
0.12912 1.64716 1.62212 -0.0524231 -0.027034 -0.998259 6 6 3
0.130755 1.64999 1.62188 -0.0345039 -0.0608415 -0.997551 32 25 17
0.134019 1.64998 1.62177 -0.0545 -0.0753146 -0.995669 13 11 7
0.134022 1.64999 1.62176 -0.0512123 -0.0781932 -0.995622 13 11 7
0.137276 1.64998 1.62167 -0.117968 -0.0662983 -0.990802 2 2 1
0.141011 1.64974 1.62071 -0.262829 0.0103943 -0.964786 0 0 0
0.144021 1.64975 1.62047 -0.0894004 0.0555646 -0.994445 0 0 0
0.148056 1.64726 1.62142 -0.0086368 -0.122471 -0.992435 0 1 1
0.151676 1.64727 1.62137 -0.113284 -0.102625 -0.988248 2 6 4
0.155068 1.64727 1.62054 -0.289373 -0.154121 -0.944728 4 18 14
0.278763 1.64955 1.60755 0.0793073 -0.388761 -0.917919 16 25 23
0.280865 1.64952 1.60647 0.220568 -0.257089 -0.94088 60 61 56
-0.157408 1.65127 1.6091 0.214097 -0.531536 -0.819531 66 70 66
-0.153392 1.65097 1.611 -0.39827 -0.159678 -0.903263 19 27 25
-0.155256 1.65095 1.61029 -0.411617 -0.121306 -0.903248 29 35 32
-0.150101 1.65109 1.61161 -0.420953 -0.0119821 -0.907004 14 23 22
-0.147491 1.65106 1.609 -0.349722 -0.0119111 -0.936778 13 22 20
-0.143455 1.65108 1.60899 -0.211874 0.226317 -0.950731 10 20 17
-0.139245 1.65112 1.60975 -0.398233 0.231217 -0.887665 10 19 16
-0.135122 1.65114 1.60931 -0.323016 0.0687306 -0.943895 14 22 18
-0.132752 1.65295 1.60924 0.239455 0.190187 -0.952098 29 33 28
-0.12558 1.65163 1.61173 0.46745 0.166829 -0.868135 9 10 8
-0.123277 1.65163 1.61212 0.501711 0.00135002 -0.865034 5 6 5
-0.117673 1.65158 1.60998 0.497084 -0.0289591 -0.867219 4 4 3
-0.114842 1.65139 1.61166 0.211532 -0.118747 -0.970131 2 3 2
-0.11162 1.6514 1.61272 0.188604 -0.0314322 -0.98155 2 2 1
-0.108204 1.6514 1.61347 0.187293 -0.0265604 -0.981945 8 9 5
-0.104884 1.6514 1.61425 0.165067 -0.0485785 -0.985085 22 23 15
-0.101349 1.6513 1.61461 0.0620465 -0.0891244 -0.994086 22 24 15
-0.0981228 1.6513 1.61502 0.0592265 -0.0720941 -0.995638 22 23 15
-0.0948588 1.6513 1.61522 0.0626363 -0.0744652 -0.995255 17 18 11
-0.0916342 1.6513 1.61524 -0.0378215 -0.0341745 -0.9987 15 16 10
-0.0884597 1.6513 1.61525 0.0714592 0.0389546 -0.996683 20 21 14
-0.0849393 1.65127 1.61574 0.25328 0.255612 -0.933012 21 23 15
-0.081733 1.65126 1.61603 0.124931 -0.0238101 -0.99188 22 22 15
-0.0779292 1.65111 1.61639 0.0748287 -0.0453799 -0.996163 20 20 12
-0.0776245 1.65108 1.61669 0.0123485 0.0868214 -0.996147 20 20 12
-0.0741462 1.65117 1.61688 -0.0390415 0.0838307 -0.995715 10 8 4
-0.0708418 1.65117 1.61695 0.0664337 0.00326869 -0.997785 17 16 9
-0.0669189 1.65109 1.6174 0.0650347 -0.107116 -0.992117 23 24 15
-0.0634912 1.65108 1.61713 -0.0793455 0.0836731 -0.993329 22 24 13
-0.0547253 1.65132 1.61781 0.0564465 -0.0191826 -0.998221 9 13 13
-0.0514443 1.65132 1.61781 -0.0594657 -0.0330369 -0.997684 8 13 14
-0.0481051 1.6512 1.61777 -0.135161 0.0105887 -0.990767 7 12 13
-0.0443182 1.65044 1.61835 0.397685 -0.328353 -0.856756 4 11 11
-0.0408569 1.65043 1.61854 0.0851594 -0.0707309 -0.993854 3 9 9
-0.0373755 1.6504 1.61869 0.011958 -0.201671 -0.97938 5 10 9
-0.033547 1.6507 1.61891 -0.0122492 -0.053013 -0.998519 3 5 3
-0.0277133 1.65056 1.61906 0.394112 -0.315877 -0.863074 3 5 2
-0.0239079 1.65056 1.61942 0.179976 0.0884804 -0.979684 5 9 5
-0.0202157 1.65042 1.61937 -0.04814 0.0566123 -0.997235 4 9 5
-0.0157583 1.65075 1.61972 0.0196888 -0.0369925 -0.999122 2 4 2
-0.00335097 1.65047 1.62087 0.127189 -0.177849 -0.975804 1 3 4
0.0126274 1.65077 1.62345 -0.472455 0.321464 -0.820639 0 2 3
0.0216368 1.65275 1.62351 -0.336979 0.357417 -0.871033 1 6 6
0.0246807 1.65276 1.62285 -0.32312 0.33898 -0.883565 3 10 10
0.0273425 1.65278 1.6227 -0.370123 0.317531 -0.873031 4 14 12
0.0323159 1.65105 1.62207 -0.222069 -0.267833 -0.937524 3 14 12
0.0354492 1.65106 1.62276 0.0219525 0.129626 -0.99132 4 16 12
0.0385093 1.65107 1.62363 0.0558804 0.214562 -0.97511 5 16 12
0.0444417 1.65108 1.62127 0.12336 -0.301708 -0.945386 6 16 12
0.049991 1.65102 1.62301 -0.0399396 0.0774907 -0.996193 12 18 12
0.053527 1.65096 1.62245 -0.0320243 -0.185338 -0.982153 22 21 14
0.0570052 1.65096 1.62242 -0.0807535 -0.185306 -0.979357 24 22 15
0.0618929 1.65231 1.62331 -0.162957 -0.229615 -0.959543 25 22 15
0.0654508 1.65231 1.62276 -0.104693 -0.166981 -0.980386 24 21 15
0.0690389 1.65213 1.62265 -0.0468135 -0.142152 -0.988737 14 13 7
0.0725419 1.65216 1.62268 -0.0293095 -0.127575 -0.991396 3 3 1
0.0759794 1.65216 1.62255 -0.0430348 -0.0601409 -0.997262 2 2 1
0.0793126 1.65216 1.62251 0.00137413 -0.143359 -0.98967 2 3 0
0.0826791 1.65216 1.62255 -0.0220265 -0.183862 -0.982705 6 6 2
0.0860019 1.65216 1.62235 -0.033016 -0.088003 -0.995573 18 15 9
0.089605 1.65214 1.62231 -0.0281345 -0.108417 -0.993707 25 21 13
0.0957454 1.65207 1.62255 -0.103154 -0.227654 -0.968263 25 21 14
0.100147 1.65224 1.62228 0.135557 0.00339475 -0.990764 23 19 12
0.103482 1.65251 1.62278 -0.0275221 -0.188257 -0.981734 25 19 12
0.109085 1.65294 1.62248 -0.175653 -0.131635 -0.975612 28 19 12
0.112431 1.65293 1.62191 -0.0587018 -0.137673 -0.988737 27 18 11
0.119299 1.65276 1.62188 0.0158407 -0.146913 -0.989023 30 18 9
0.122245 1.65277 1.62268 0.00501686 0.155709 -0.98779 32 20 11
0.125827 1.65276 1.62185 -0.0656585 -0.070582 -0.995343 37 25 14
0.129126 1.65276 1.62168 -0.0626344 -0.0785445 -0.994941 40 29 18
0.132361 1.65284 1.62151 -0.0437984 -0.104137 -0.993598 34 26 17
0.132382 1.65282 1.62151 -0.0419874 -0.104942 -0.993592 34 26 17
0.135613 1.65282 1.62147 -0.0517455 -0.103864 -0.993245 16 14 10
0.138973 1.65265 1.62133 -0.0999241 -0.123705 -0.987275 1 1 1
0.14235 1.65269 1.62106 -0.146367 -0.088416 -0.985271 0 0 0
0.145941 1.65263 1.62077 0.0310465 -0.0586497 -0.997796 0 0 0
0.148594 1.65317 1.62074 -0.0167471 -0.0551956 -0.998335 1 2 2
0.151604 1.65317 1.62047 -0.125944 -0.116508 -0.985172 3 12 10
0.153388 1.65026 1.62067 -0.237535 -0.146823 -0.960219 4 15 11
0.155655 1.65319 1.62084 0.147372 -0.0313848 -0.988583 4 17 14
0.27555 1.65241 1.60855 -0.128592 -0.249336 -0.959841 10 23 21
0.275646 1.65091 1.60683 -0.0482591 -0.250869 -0.966817 11 24 22
0.277997 1.65239 1.60708 -0.218807 -0.261556 -0.94006 14 25 22
0.280014 1.65236 1.60592 0.232708 -0.188074 -0.954188 36 41 37
-0.152982 1.65389 1.6095 -0.391155 -0.252516 -0.885005 41 42 38
-0.153988 1.65416 1.6094 -0.412368 -0.122167 -0.902789 44 44 40
-0.148865 1.65416 1.61008 -0.343708 -0.115985 -0.931886 37 38 34
-0.144272 1.65402 1.61133 -0.133391 0.122311 -0.983487 34 36 31
-0.141013 1.65402 1.61038 -0.143611 0.196966 -0.969835 35 36 32
-0.140937 1.65401 1.61038 -0.33482 0.410981 -0.847933 35 36 32
-0.136876 1.65436 1.61022 -0.380273 0.29919 -0.875145 36 36 31
-0.13686 1.6542 1.61102 -0.369146 0.333276 -0.867559 35 36 31
-0.132685 1.6545 1.6064 0.506394 -0.00319103 -0.862297 41 41 36
-0.130529 1.65451 1.60926 0.50134 0.0756923 -0.861933 39 39 35
-0.127396 1.65453 1.61128 0.469989 0.225463 -0.853392 37 36 32
-0.125164 1.6545 1.61165 0.480898 0.18647 -0.856718 34 33 30
-0.120653 1.65446 1.61115 0.447842 -0.326489 -0.832372 31 31 28
-0.115786 1.65441 1.60988 0.432575 -0.201301 -0.878838 29 29 26
-0.112841 1.65445 1.61154 0.352508 -0.0987587 -0.930583 29 28 25
-0.109807 1.65446 1.61288 0.243114 -0.0688652 -0.96755 28 27 24
-0.109813 1.65443 1.61278 0.28102 -0.0875628 -0.955699 28 27 24
-0.106493 1.65443 1.61367 0.191795 -0.0659743 -0.979215 24 24 19
-0.102997 1.65443 1.61419 0.103442 -0.0609789 -0.992765 22 23 16
-0.102948 1.65443 1.61423 0.103878 -0.057466 -0.992929 22 23 16
-0.0997203 1.65411 1.61458 0.0185663 -0.0845172 -0.996249 27 28 21
-0.0932536 1.65402 1.61513 0.0811 -0.0736048 -0.993984 21 22 15
-0.0900198 1.65418 1.61542 0.0621168 -0.0664246 -0.995856 24 25 18
-0.086698 1.65418 1.61567 0.0742658 -0.0771026 -0.994253 23 24 17
-0.0829455 1.65355 1.61621 -0.0397062 -0.0271146 -0.998843 17 16 11
-0.079467 1.65387 1.61629 0.123168 -0.0753834 -0.989519 16 13 9
-0.0761173 1.65387 1.61652 -0.00870046 -0.074452 -0.997187 13 10 6
-0.0727863 1.65374 1.61669 0.0641724 -0.0573738 -0.996288 8 5 3
-0.0692549 1.65409 1.61693 0.0886822 -0.0407214 -0.995227 14 11 7
-0.0651902 1.65401 1.61702 -0.0337189 -0.0887834 -0.99548 21 22 13
-0.0594005 1.65336 1.61737 0.0871659 -0.0343609 -0.995601 18 19 13
-0.0558884 1.65335 1.61779 0.076564 -0.0553869 -0.995525 11 13 11
-0.0524375 1.65341 1.61769 -0.00261861 -0.0227562 -0.999738 5 9 10
-0.0491201 1.65367 1.61781 -0.0116184 -0.0356122 -0.999298 3 8 9
-0.0425595 1.65343 1.61807 0.120835 -0.0153963 -0.992553 3 7 7
-0.0391226 1.65344 1.6186 0.0701935 -0.0385875 -0.996787 3 8 7
-0.0391396 1.65344 1.61861 0.0648902 -0.0406917 -0.997062 3 8 7
-0.0353289 1.65344 1.61853 -0.116593 -0.0779673 -0.990115 4 8 6
-0.0319654 1.65343 1.61854 -0.0953905 -0.094736 -0.990922 5 8 6
-0.0282501 1.65338 1.61917 0.303208 -0.224227 -0.926168 6 8 4
-0.0247319 1.65343 1.61954 0.219274 -0.185155 -0.957933 4 5 2
-0.0184726 1.65347 1.61922 0.048701 -0.0622009 -0.996875 1 1 1
-0.0172858 1.65373 1.62072 -0.380666 0.176288 -0.907753 1 1 0
-0.0115545 1.65346 1.61917 0.0605401 -0.0603032 -0.996343 3 3 2
-0.00826797 1.65347 1.61973 0.0936295 -0.0969659 -0.990874 7 7 6
-0.00478481 1.65347 1.61993 0.0564343 -0.101232 -0.993261 9 9 8
-0.00185481 1.65348 1.62114 0.355022 -0.385397 -0.851721 2 4 4
0.00943989 1.65364 1.62264 0.164357 0.0490813 -0.985179 0 3 4
0.0127532 1.65356 1.61985 0.327029 0.117788 -0.937645 0 3 4
0.017888 1.65564 1.62317 0.068636 0.034852 -0.997033 4 10 9
0.0214126 1.65564 1.62317 -0.00590593 0.0903411 -0.995893 4 14 12
0.0265084 1.65562 1.623 -0.134376 0.223893 -0.965306 6 16 14
0.0294371 1.65563 1.62256 -0.304829 0.280334 -0.910216 5 17 14
0.0341065 1.6557 1.62407 -0.282468 0.313372 -0.906648 5 17 14
0.0319219 1.65566 1.62291 -0.312943 0.249483 -0.91642 5 16 14
0.0366027 1.65574 1.62544 -0.201644 0.495819 -0.844691 4 16 13
0.0467216 1.6541 1.6264 -0.438828 0.417958 -0.79545 6 17 12
0.0445088 1.65406 1.62582 -0.476949 0.360708 -0.801504 6 16 12
0.0504999 1.65409 1.62573 -0.431727 0.458199 -0.776959 8 18 12
0.0552042 1.65396 1.62196 0.00224459 -0.222367 -0.97496 13 19 13
0.0635442 1.65529 1.62268 -0.269211 -0.223508 -0.936787 23 22 15
0.0672888 1.65512 1.62245 -0.106021 -0.118521 -0.987275 23 21 14
0.0707615 1.65512 1.62241 -0.0533239 -0.108899 -0.992622 22 20 13
0.0741898 1.65513 1.62236 -0.0374033 -0.0883582 -0.995386 14 13 8
0.0775944 1.65513 1.62218 -0.0353438 -0.0649402 -0.997263 4 4 2
0.0809867 1.65506 1.62204 -0.00634619 -0.110588 -0.993846 1 2 0
0.0843455 1.65505 1.62198 -0.0217617 -0.119124 -0.992641 2 2 0
0.0876716 1.65505 1.62183 -0.0333056 -0.0805278 -0.996196 5 6 2
0.0910772 1.65505 1.62175 -0.00874484 -0.125837 -0.992012 15 14 8
0.101095 1.65499 1.62165 0.0710337 0.0134056 -0.997384 26 21 14
0.110731 1.65583 1.62174 -0.161826 -0.188951 -0.968561 30 21 13
0.114085 1.65583 1.6213 -0.100496 -0.111048 -0.988721 28 18 10
0.117788 1.65554 1.62118 -0.0960809 -0.270416 -0.957937 29 17 8
0.121264 1.65555 1.62155 0.035192 -0.0859253 -0.99568 29 17 8
0.124247 1.65564 1.62153 0.0115943 -0.0402729 -0.999122 30 18 9
0.130722 1.65564 1.62136 -0.0734668 -0.105448 -0.991707 32 20 12
0.133992 1.65562 1.62129 -0.0224093 -0.0719446 -0.997157 19 13 7
0.133973 1.65564 1.62129 -0.0202655 -0.0706679 -0.997294 19 13 7
0.137284 1.65562 1.6211 -0.143558 -0.108389 -0.983688 3 3 1
0.14115 1.65594 1.62092 -0.015223 -0.0768878 -0.996924 0 0 0
0.144079 1.65593 1.62059 -0.00608721 -0.0838558 -0.996459 0 0 0
0.146765 1.65591 1.6204 0.0804408 0.0265353 -0.996406 1 2 2
0.150094 1.65594 1.62045 -0.0121548 -0.0513201 -0.998608 3 13 9
0.154095 1.65598 1.62072 0.181268 -0.0416688 -0.98255 4 15 12
0.274341 1.65536 1.60343 0.240854 -0.131261 -0.961644 10 25 22
0.277548 1.65535 1.60408 0.239295 -0.134446 -0.961594 15 28 25
-0.15835 1.65694 1.61066 -0.410091 -0.1267 -0.903201 75 74 68
-0.154621 1.65668 1.61054 -0.413264 -0.116923 -0.903073 45 45 40
-0.151032 1.65661 1.6084 -0.390287 -0.0822893 -0.917009 40 41 36
-0.147581 1.65729 1.61081 -0.281694 -0.169571 -0.944401 39 39 35
-0.14435 1.65731 1.61054 -0.345145 -0.413758 -0.842425 38 37 33
-0.133947 1.65738 1.60539 0.496471 0.113477 -0.860604 43 42 38
-0.131862 1.6574 1.60829 0.495641 0.123242 -0.859739 43 42 38
-0.129406 1.65741 1.61071 0.483086 0.187007 -0.855369 42 41 37
-0.126024 1.65744 1.61286 0.430697 0.349323 -0.83215 41 40 37
-0.122623 1.65733 1.6108 0.345886 -0.0626536 -0.936182 39 38 35
-0.116968 1.65726 1.60851 0.495443 -0.0519817 -0.867084 37 36 33
-0.111521 1.65746 1.61238 0.238962 0.0057272 -0.971012 37 36 33
-0.108125 1.65748 1.61304 0.23243 -0.065888 -0.970379 35 35 32
-0.108024 1.65745 1.61302 0.241692 -0.0690561 -0.967893 35 35 32
-0.104677 1.65748 1.61375 0.1351 -0.128973 -0.982402 22 22 19
-0.10479 1.65748 1.61392 0.282433 -0.109113 -0.953061 22 22 20
-0.104727 1.65746 1.61396 0.299675 -0.111173 -0.947542 22 22 19
-0.101311 1.65732 1.6143 0.0963767 0.0554851 -0.993797 21 22 19
-0.0959808 1.65658 1.61472 0.103524 -0.0127727 -0.994545 25 25 21
-0.0925363 1.65652 1.61506 0.119121 -0.0115192 -0.992813 17 18 14
-0.0888868 1.65646 1.61552 0.182008 0.0774111 -0.980245 22 22 18
-0.0848086 1.65661 1.61589 0.0537252 -0.0617076 -0.996647 23 23 19
-0.0810789 1.65661 1.61605 0.142453 -0.1042 -0.984302 22 21 17
-0.0777045 1.65663 1.61634 0.0166366 -0.0993579 -0.994913 33 31 27
-0.0744701 1.65663 1.61639 0.0620836 -0.0545663 -0.996578 31 30 26
-0.0677223 1.65655 1.61708 0.00400746 -0.0259788 -0.999654 20 19 15
-0.0640963 1.65648 1.61706 0.0181756 -0.152218 -0.98818 23 23 18
-0.0612009 1.6564 1.61713 0.104222 -0.0591045 -0.992796 24 24 19
-0.0576949 1.6564 1.61749 0.114224 -0.0766241 -0.990496 24 24 20
-0.0541856 1.65641 1.61784 0.0752775 -0.0969778 -0.992436 14 15 13
-0.050699 1.6564 1.61766 -0.0631229 -0.0485065 -0.996826 14 15 14
-0.0475615 1.65641 1.61775 -0.000285964 -0.00870974 -0.999962 15 16 14
-0.0442629 1.65641 1.61776 0.0549195 -0.0181797 -0.998325 20 21 20
-0.040845 1.65641 1.6182 0.0514845 -0.0864447 -0.994925 13 15 13
-0.0373977 1.65641 1.61835 0.00686799 -0.0704505 -0.997492 16 18 16
-0.0340299 1.65641 1.61811 0.04073 0.0470881 -0.99806 14 16 14
-0.0307088 1.6564 1.61806 0.0640981 0.0127331 -0.997862 10 11 8
-0.0271731 1.6564 1.61832 0.099676 0.00480249 -0.995008 9 9 7
-0.0237903 1.6564 1.61857 0.0161212 -0.0206091 -0.999658 12 11 9
-0.0205687 1.65639 1.61834 -0.13683 -0.0397272 -0.989798 13 12 9
-0.0167445 1.65642 1.61893 0.00474408 -0.106676 -0.994283 11 11 8
-0.0133801 1.65642 1.61886 0.000857055 -0.0479393 -0.99885 13 12 8
-0.0115477 1.65938 1.61889 -0.0168897 -0.0440656 -0.998886 33 32 27
-0.00830035 1.65939 1.61908 0.0942154 -0.12247 -0.98799 33 31 27
-0.00515087 1.6594 1.61991 0.0158982 -0.0143627 -0.999771 32 31 27
-0.00140411 1.65939 1.61949 0.180756 -0.11816 -0.976404 32 31 27
0.00203612 1.65938 1.61975 0.120396 -0.227747 -0.966248 33 32 28
0.00534477 1.65939 1.62035 0.0850302 -0.1338 -0.987354 31 31 27
0.00789449 1.65642 1.61925 0.166293 -0.0301807 -0.985614 4 6 6
0.0115785 1.65936 1.62206 0.325819 0.364663 -0.872275 29 30 26
0.0135934 1.65642 1.62185 0.405443 0.0171799 -0.913959 4 7 7
0.0201653 1.65867 1.62247 0.0314663 0.158256 -0.986897 21 25 22
0.0198179 1.65857 1.62294 0.088862 0.249668 -0.964246 20 24 21
0.026367 1.65843 1.62273 -0.412124 0.2455 -0.87743 17 22 18
0.0311828 1.6585 1.62291 -0.402776 0.2586 -0.878008 16 22 18
0.028882 1.65846 1.62256 -0.419179 0.237159 -0.876382 16 22 17
0.033956 1.65849 1.62308 -0.142639 0.182331 -0.972836 15 21 18
0.0397827 1.65887 1.62175 -0.3739 0.411143 -0.831361 17 22 18
0.0384558 1.65841 1.62091 -0.261141 0.517072 -0.815133 13 20 17
0.0473058 1.65714 1.62532 -0.334706 0.344958 -0.876912 6 16 12
0.0534916 1.65718 1.62522 -0.341633 0.356231 -0.869705 8 17 12
0.0586544 1.6572 1.62241 -0.132808 -0.0134179 -0.991051 10 17 11
0.0690008 1.65811 1.6219 -0.281891 -0.249581 -0.926416 23 22 15
0.0724595 1.65808 1.62195 0.0254064 -0.0916367 -0.995468 25 23 16
0.0724742 1.65807 1.62194 0.0371887 -0.0827678 -0.995875 25 23 16
0.0758829 1.65807 1.62203 -0.031003 -0.0293295 -0.999089 23 21 14
0.0793048 1.65795 1.62183 -0.000615374 -0.0921526 -0.995745 15 14 9
0.08266 1.65795 1.62168 -0.0116967 -0.0887718 -0.995983 4 4 2
0.0961423 1.65789 1.62133 -0.00875786 -0.155681 -0.987769 15 14 9
0.0994802 1.65789 1.62129 -0.0400879 -0.187714 -0.981405 25 21 14
0.102826 1.658 1.62139 -0.0570923 -0.231109 -0.971251 27 22 15
0.105832 1.65798 1.62106 -0.0912035 -0.1876 -0.978002 28 22 15
0.109137 1.65791 1.62039 0.202148 0.119304 -0.972061 30 22 15
0.112414 1.65856 1.62083 -0.344468 -0.304216 -0.888141 31 23 15
0.115687 1.65857 1.621 -0.23731 -0.103814 -0.965871 29 20 13
0.122247 1.65841 1.62093 -0.160191 -0.289034 -0.943821 30 18 10
0.125609 1.65841 1.62114 0.0195794 -0.0837509 -0.996294 30 18 9
0.129183 1.65847 1.62093 -0.0544597 -0.114017 -0.991985 30 18 10
0.132352 1.65847 1.62104 -0.045615 -0.0850536 -0.995332 22 15 9
0.135641 1.65854 1.62084 -0.111088 -0.091308 -0.989607 7 6 4
0.138947 1.65854 1.62061 -0.0297856 -0.0907397 -0.995429 0 0 0
0.145395 1.65869 1.62061 0.119388 0.0454742 -0.991806 2 9 6
0.147724 1.65866 1.62001 -0.0987782 -0.230302 -0.968093 3 15 10
0.151371 1.65867 1.61997 0.0241254 -0.164563 -0.986071 4 17 13
0.154501 1.65866 1.61967 0.248905 -0.424035 -0.87077 4 17 13
-0.160454 1.66014 1.61157 -0.382247 -0.0757415 -0.920951 85 84 77
-0.153015 1.65982 1.60998 -0.365492 -0.0390087 -0.929997 44 43 39
-0.149777 1.65985 1.6095 -0.362124 -0.113958 -0.925138 41 41 37
-0.146023 1.66027 1.60963 -0.333298 -0.440519 -0.83358 40 40 36
-0.128598 1.66037 1.6119 0.436213 0.336484 -0.834564 42 41 37
-0.120039 1.66021 1.61007 -0.21185 0.522251 -0.826059 39 38 35
-0.110207 1.6605 1.61311 -0.0564583 -0.161408 -0.985271 38 37 33
-0.110206 1.66047 1.61323 -0.0939133 -0.175267 -0.980032 38 37 33
-0.106365 1.66045 1.61335 0.176788 -0.0439635 -0.983267 35 35 30
-0.106445 1.66049 1.61334 0.160413 -0.0533618 -0.985606 35 35 31
-0.103188 1.66044 1.614 0.0582405 -0.01836 -0.998134 33 33 29
-0.0996305 1.66021 1.61457 0.0708736 0.0556174 -0.995934 30 29 27
-0.0943307 1.65962 1.61475 0.176555 -0.0355567 -0.983648 28 28 26
-0.0908235 1.65952 1.61547 0.125174 0.0755256 -0.989256 19 19 17
-0.0872297 1.65951 1.61586 0.158545 -0.0325704 -0.986814 16 17 15
-0.0826438 1.65941 1.61568 0.106088 -0.108467 -0.988423 15 15 13
-0.0794382 1.65941 1.61585 0.0287685 -0.0833896 -0.996102 21 21 19
-0.0761529 1.65952 1.61609 0.104728 -0.0615957 -0.992592 34 33 30
-0.0727238 1.65953 1.61644 0.104407 -0.0129936 -0.99445 29 28 24
-0.069362 1.65952 1.61668 0.0907669 -0.0530684 -0.994457 19 19 17
-0.0659616 1.65952 1.61702 0.137278 -0.00348361 -0.990526 18 18 16
-0.0623937 1.65952 1.61735 0.0386931 -0.0532169 -0.997833 17 17 16
-0.0594307 1.65943 1.61707 0.104744 -0.0850834 -0.990853 20 19 17
-0.0558994 1.65944 1.61743 0.0975332 -0.0717751 -0.992641 25 25 23
-0.0437472 1.66247 1.61782 0.0545355 -0.0457517 -0.997463 26 27 24
-0.0403883 1.66247 1.618 0.0343217 -0.0565328 -0.997811 25 25 23
-0.0368767 1.66247 1.61825 0.072107 -0.00761187 -0.997368 23 23 20
-0.0333652 1.66247 1.61851 0.0735635 -0.00629678 -0.997271 26 26 24
-0.0298759 1.66246 1.61862 0.0459025 -0.0374023 -0.998246 27 27 24
-0.0263706 1.66246 1.61871 0.0662484 -0.0394076 -0.997025 18 18 15
-0.0227146 1.66246 1.61869 0.0146224 -0.110985 -0.993715 20 20 17
-0.0192952 1.66246 1.61875 -0.0483092 -0.0991744 -0.993897 29 28 24
-0.017687 1.65962 1.61905 0.0335736 -0.0931309 -0.995088 33 32 28
-0.0131667 1.66231 1.61865 0.0680547 -0.0746768 -0.994883 35 34 29
-0.00967993 1.6623 1.61841 0.0723783 -0.13644 -0.988001 35 34 29
-0.00683049 1.66236 1.61938 -0.0243155 -0.144372 -0.989225 36 35 30
-0.0062502 1.66231 1.61874 0.0859151 -0.172393 -0.981274 36 35 30
-0.00380846 1.66237 1.62 -0.000936776 0.0378807 -0.999282 36 35 30
-0.00351042 1.66243 1.62008 0.0089556 0.0216912 -0.999725 36 35 30
0.00330194 1.6623 1.62025 0.223466 -0.14945 -0.963186 38 37 32
0.00692648 1.66233 1.62039 0.0785549 -0.0632343 -0.994902 37 36 31
0.00842046 1.66224 1.618 0.324203 0.391258 -0.861284 37 36 31
0.0158288 1.66145 1.62166 -0.0883456 0.157323 -0.983588 35 35 30
0.0161669 1.66161 1.62041 0.260829 -0.0106591 -0.965326 36 35 30
0.0191034 1.66163 1.62155 0.0827473 0.0985909 -0.991682 35 35 31
0.0190511 1.66145 1.62155 -0.100889 0.138434 -0.985219 35 35 31
0.0214247 1.6615 1.62306 -0.186023 0.0864861 -0.978732 35 35 31
0.0223893 1.66164 1.62202 0.273892 -0.081425 -0.958307 35 35 30
0.0254281 1.66142 1.62349 -0.400599 0.270654 -0.875367 34 35 30
0.0327728 1.66133 1.62306 -0.15136 0.166301 -0.974389 35 35 30
0.0315118 1.66124 1.61962 0.0313888 0.334564 -0.94185 36 35 31
0.0375679 1.66126 1.61957 0.392548 -0.0831952 -0.915961 34 35 30
0.0400552 1.66178 1.62089 -0.516602 0.223506 -0.82654 34 35 30
0.0380997 1.66124 1.61861 0.010161 0.24882 -0.968496 34 35 30
0.0462736 1.66003 1.62644 -0.291821 0.402384 -0.867714 25 28 24
0.0484823 1.66008 1.62778 -0.228088 0.569893 -0.789429 25 29 25
0.052577 1.66214 1.62687 -0.248308 0.533183 -0.808739 35 35 30
0.0569776 1.66013 1.62259 -0.186425 -0.0471332 -0.981338 25 28 24
0.0608017 1.6602 1.62156 -0.0910915 0.0479581 -0.994687 25 27 22
0.0641871 1.6602 1.62142 -0.103728 0.0437559 -0.993643 24 25 20
0.0675821 1.66036 1.62151 0.100586 -0.118436 -0.987854 22 21 14
0.0741793 1.66102 1.62199 0.127515 -0.0397203 -0.991041 25 23 16
0.0778931 1.66081 1.62166 -0.0443666 -0.00828412 -0.998981 26 23 16
0.081308 1.66081 1.62155 -0.047949 -0.0164886 -0.998714 24 21 14
0.0843453 1.6608 1.62125 0.0209141 -0.167496 -0.985651 16 14 9
0.0877021 1.6608 1.62121 -0.0143414 -0.127255 -0.991766 5 5 2
0.0911067 1.6608 1.62119 -0.0216679 -0.109983 -0.993697 1 2 1
0.0946064 1.66075 1.62118 -0.000983417 -0.105852 -0.994381 1 2 0
0.097738 1.66074 1.62095 -0.0362702 -0.145169 -0.988742 4 5 1
0.101319 1.66067 1.62082 -0.0239217 -0.276387 -0.960749 15 15 9
0.1049 1.66079 1.62097 0.0318448 -0.313625 -0.949013 25 21 14
0.107996 1.66078 1.62066 -0.0188932 -0.139254 -0.990077 29 23 16
0.113969 1.66136 1.61991 0.000683099 0.0345281 -0.999404 31 24 17
0.117792 1.66137 1.6202 0.315825 0.187891 -0.930028 30 22 15
0.127687 1.66138 1.62022 0.0992075 -0.132719 -0.986176 28 20 12
0.130628 1.6614 1.6209 -0.120692 -0.110956 -0.98647 25 17 11
0.133972 1.6614 1.6206 -0.114606 -0.111381 -0.987147 11 11 6
0.137327 1.6614 1.62027 -0.0770459 -0.111682 -0.990753 2 3 2
0.140647 1.66146 1.62021 0.0585159 -0.120288 -0.991013 3 8 5
0.143713 1.66146 1.62064 0.12309 -0.0103093 -0.992342 3 15 10
0.146778 1.66147 1.6213 0.177045 0.150168 -0.972679 3 17 11
-0.157791 1.66295 1.60982 -0.149809 -0.0144655 -0.988609 69 68 63
-0.154627 1.66295 1.60982 0.00304396 -0.010381 -0.999941 46 45 40
-0.151519 1.66299 1.6101 -0.299749 -0.0809353 -0.950579 42 41 37
-0.10816 1.6635 1.61294 0.183992 -0.0252597 -0.982603 37 37 33
-0.104781 1.6635 1.61358 0.104657 -0.0209549 -0.994288 36 35 32
-0.10156 1.66324 1.61403 0.0718518 -0.0362328 -0.996757 36 36 33
-0.0994193 1.66253 1.61415 0.0286547 -0.0325257 -0.99906 35 34 33
-0.0959136 1.66254 1.61474 0.147597 0.0508422 -0.98774 35 34 32
-0.092567 1.66254 1.61506 0.0959778 -0.00225191 -0.995381 37 36 33
-0.0886944 1.66252 1.61505 0.205896 -0.120987 -0.971066 35 34 32
-0.0848764 1.6625 1.61493 0.130581 -0.0709511 -0.988896 33 33 29
-0.0813387 1.6625 1.61536 0.139801 -0.062527 -0.988204 33 32 28
-0.0779057 1.6625 1.61563 0.0958221 -0.0593424 -0.993628 35 34 31
-0.0762363 1.66546 1.6157 0.108382 -0.0446055 -0.993108 33 32 28
-0.071109 1.6625 1.61634 0.116139 -0.0597555 -0.991434 29 28 25
-0.0676496 1.6625 1.6167 0.111103 -0.0457068 -0.992757 29 28 25
-0.0644503 1.66248 1.61665 0.0223804 -0.119469 -0.992586 28 27 25
-0.0611873 1.66248 1.61678 0.117531 -0.0376823 -0.992354 29 29 26
-0.0576454 1.66248 1.61713 0.10056 -0.0484936 -0.993749 31 30 28
-0.054024 1.66248 1.61727 0.0869403 -0.104958 -0.990669 28 27 25
-0.0505307 1.66248 1.61755 0.00765458 -0.024775 -0.999664 25 25 22
-0.0472933 1.66248 1.61769 0.0740412 -0.037108 -0.996565 27 26 24
-0.0454959 1.66549 1.61762 0.0664219 -0.055964 -0.996221 35 34 31
-0.0420685 1.66545 1.61786 0.0537525 -0.0351201 -0.997937 33 33 30
-0.0383783 1.66547 1.61808 0.051461 -0.0471141 -0.997563 34 33 29
-0.031608 1.66546 1.61848 0.0459515 -0.0229398 -0.99868 33 33 30
-0.027931 1.66546 1.61823 0.0252536 -0.118965 -0.992577 34 33 29
-0.0244535 1.66546 1.61824 0.00769344 -0.149231 -0.988772 34 33 29
-0.0249992 1.66548 1.6183 -0.00200853 -0.119523 -0.992829 33 33 29
-0.0211808 1.66546 1.61853 0.0598652 -0.0482984 -0.997037 34 33 29
-0.0149934 1.66532 1.6185 -0.16905 -0.0901636 -0.981475 36 35 30
-0.0177231 1.6653 1.61833 -0.066852 -0.0719692 -0.995164 36 35 31
-0.0090731 1.66517 1.61373 0.0258116 -0.80079 -0.59839 37 36 31
-0.00725513 1.66526 1.61694 -0.447632 -0.380709 -0.809127 37 36 31
-0.00322079 1.66514 1.62005 -0.405872 -0.477012 -0.779569 37 36 31
0.00140279 1.66507 1.6189 0.367765 -0.353606 -0.860065 37 36 31
0.0148358 1.66431 1.62104 -0.407707 0.390157 -0.825562 37 36 31
0.0134299 1.66421 1.6189 -0.452782 0.357448 -0.816835 37 36 31
0.0134338 1.66421 1.61889 -0.452794 0.357362 -0.816866 37 36 31
0.0188567 1.66426 1.61939 -0.472367 0.317676 -0.822163 37 36 32
0.0197092 1.66444 1.61728 0.347316 0.311928 -0.884349 37 36 31
0.0266321 1.66428 1.6202 -0.485487 0.296299 -0.822502 36 35 30
0.0284159 1.66428 1.62302 -0.451254 0.38544 -0.804864 36 36 31
0.0459884 1.66432 1.63059 -0.388898 0.484509 -0.783588 36 36 31
0.0567517 1.66416 1.62505 -0.29446 0.633469 -0.715549 36 37 32
0.058902 1.66333 1.62589 -0.415676 0.479043 -0.773131 36 36 32
0.0623942 1.66333 1.62415 -0.51314 0.288551 -0.808347 34 35 31
0.0660574 1.66319 1.62108 0.0670026 -0.0349485 -0.997141 33 32 27
0.0693216 1.66319 1.62132 0.0895262 -0.0563411 -0.99439 20 18 12
0.0726147 1.66378 1.62181 0.179225 -0.0705902 -0.981272 24 21 14
0.0757926 1.66379 1.62251 0.324727 0.282473 -0.902641 27 23 16
0.0796581 1.66381 1.62297 0.251372 0.387426 -0.886969 28 23 16
0.0861188 1.66367 1.62075 0.032148 -0.192044 -0.98086 27 23 16
0.089378 1.66361 1.62094 -0.0416558 -0.0975115 -0.994362 19 17 11
0.089356 1.66368 1.62094 -0.0327078 -0.1084 -0.993569 20 17 12
0.0928871 1.66371 1.62094 -0.0344723 -0.111628 -0.993152 6 6 3
0.0961736 1.66365 1.62078 -0.036762 -0.0703664 -0.996844 1 2 1
0.0996526 1.66364 1.62055 -0.0727885 -0.0909663 -0.99319 1 2 0
0.103088 1.66361 1.6204 -0.0718247 -0.139053 -0.987677 3 5 2
0.106475 1.66361 1.62026 -0.00532949 -0.202515 -0.979265 13 12 7
0.109858 1.66361 1.62031 0.0546897 -0.233506 -0.970816 25 21 14
0.112488 1.66428 1.61999 -0.0713279 -0.00800245 -0.997421 26 22 15
0.115548 1.66427 1.61972 -0.0757215 0.0250419 -0.996815 29 23 16
0.122601 1.66388 1.61867 0.290105 0.295464 -0.910242 30 24 16
0.129241 1.66427 1.61989 0.0770325 -0.169382 -0.982535 28 22 15
0.132286 1.66429 1.62033 -0.0716848 -0.129757 -0.988951 20 18 13
0.135636 1.66429 1.62001 -0.0936501 -0.127938 -0.987351 8 14 10
0.139034 1.66429 1.6196 -0.0645769 -0.181953 -0.981184 5 16 12
0.142127 1.6643 1.61995 0.149364 -0.063553 -0.986738 5 17 13
0.145945 1.66419 1.61927 0.182128 -0.337854 -0.923409 3 18 14
-0.158596 1.66565 1.60798 0.201871 0.00906959 -0.97937 80 78 72
-0.156784 1.66571 1.6106 0.175484 -0.0146385 -0.984374 53 52 46
-0.153116 1.66598 1.60953 -0.417362 0.00265181 -0.908736 46 44 38
-0.15011 1.66605 1.61046 -0.413483 -0.144557 -0.898963 42 41 36
-0.150533 1.66601 1.60915 -0.363438 0.00696729 -0.931592 43 41 36
-0.11247 1.66653 1.61079 0.326301 0.0789464 -0.941964 38 38 34
-0.109714 1.66655 1.61227 0.147389 0.0490618 -0.987861 38 37 34
-0.106707 1.66657 1.61339 0.0963166 -0.0543719 -0.993865 35 35 31
-0.101196 1.66566 1.61417 0.0625187 -0.0824659 -0.994631 34 33 30
-0.0977135 1.66556 1.61455 0.231781 0.0304023 -0.972293 36 35 33
-0.0942602 1.66556 1.61506 0.268594 0.110167 -0.956933 35 34 32
-0.090732 1.66553 1.61497 0.101927 -0.0979678 -0.989956 36 35 32
-0.0868212 1.66557 1.61555 0.0559227 -0.141313 -0.988384 36 35 32
-0.0832775 1.66556 1.61527 0.0444411 -0.0322796 -0.99849 36 35 31
-0.0816362 1.66839 1.61524 0.0394198 -0.0480552 -0.998067 34 33 29
-0.072884 1.66553 1.61605 0.113177 -0.0553252 -0.992033 34 34 30
-0.0693232 1.66553 1.61644 0.103131 -0.0999759 -0.989631 35 35 31
-0.0644597 1.66848 1.61628 0.0296869 -0.0192601 -0.999374 28 27 25
-0.0609952 1.66848 1.61675 0.12537 -0.0468654 -0.991003 29 28 25
-0.0575169 1.66848 1.61721 0.112082 -0.114899 -0.987034 29 28 26
-0.0523742 1.66561 1.61736 0.0331359 -0.041535 -0.998587 35 34 31
-0.0507385 1.66849 1.61726 0.0176879 -0.0620361 -0.997917 31 29 27
-0.0472277 1.66848 1.61736 0.0626804 -0.0495502 -0.996803 27 26 24
-0.0438186 1.66849 1.61767 0.0857314 -0.0196075 -0.996125 24 23 21
-0.0397962 1.66846 1.6171 0.115243 -0.101798 -0.988107 32 31 28
-0.0364252 1.66846 1.61765 0.265785 -0.0710472 -0.961411 33 32 28
-0.0332172 1.66844 1.61779 0.0441093 -0.142138 -0.988863 33 32 28
-0.0298376 1.66844 1.6181 -0.0525753 -0.0354179 -0.997989 32 32 28
-0.0267442 1.66845 1.61819 0.0248348 -0.0421781 -0.998801 30 29 26
-0.0232612 1.66845 1.61818 -0.00392792 -0.0404385 -0.999174 33 32 30
-0.0193484 1.6685 1.61836 -0.0333405 -0.0427133 -0.998531 35 34 31
-0.0164412 1.66847 1.61765 -0.0346628 -0.0111332 -0.999337 36 35 31
0.044952 1.66739 1.63297 -0.449084 0.415123 -0.7912 36 36 31
0.0492608 1.66667 1.63082 -0.478882 0.357467 -0.801804 36 35 31
0.0479229 1.66743 1.63251 -0.479851 0.354179 -0.802684 36 35 31
0.0524748 1.66668 1.62914 -0.479823 0.357914 -0.801042 36 36 31
0.0641866 1.66657 1.62118 0.0439008 -0.0667219 -0.996805 36 36 31
0.0676743 1.66655 1.62096 0.0564723 -0.0661082 -0.996213 31 29 25
0.0710272 1.66655 1.62101 0.0334927 -0.0778332 -0.996404 24 21 13
0.0841624 1.66658 1.6212 -0.32431 -0.292306 -0.899656 28 24 17
0.0876771 1.66653 1.62084 -0.0850287 -0.0675281 -0.994088 29 24 17
0.0876677 1.66658 1.6208 -0.085014 -0.0690934 -0.993981 29 24 17
0.0910299 1.66657 1.62045 -0.0282049 -0.141449 -0.989544 28 23 16
0.0910572 1.66653 1.62052 -0.043567 -0.111785 -0.992777 28 23 16
0.094424 1.66657 1.62048 -0.0141221 -0.0979083 -0.995095 22 19 12
0.0944357 1.66653 1.62049 -0.0213204 -0.0859052 -0.996075 22 19 12
0.0977806 1.66657 1.62032 -0.045328 -0.0069296 -0.998948 7 8 4
0.0977686 1.66653 1.62032 -0.042639 -0.0151161 -0.998976 7 7 4
0.101098 1.66653 1.62016 -0.0406767 -0.0135264 -0.999081 1 2 1
0.104544 1.66651 1.62006 -0.0527493 0.00601695 -0.99859 1 2 0
0.108108 1.66652 1.62004 -0.0189388 -0.0823932 -0.99642 2 3 1
0.114281 1.6671 1.61983 -0.00472978 -0.122341 -0.992477 16 14 9
0.1175 1.6671 1.6197 -0.0458135 -0.101916 -0.993738 26 23 16
0.120787 1.66692 1.61899 -0.164416 0.049755 -0.985135 30 25 17
0.131026 1.66713 1.61924 0.0227792 -0.176473 -0.984042 28 24 17
0.137377 1.66711 1.61913 -0.0591059 -0.173398 -0.983077 8 19 13
0.143261 1.66711 1.62122 0.189787 0.0134374 -0.981733 5 18 13
-0.158472 1.66858 1.61035 0.163346 -0.0355232 -0.985929 70 70 64
-0.158497 1.67135 1.60778 0.17076 -0.0557211 -0.983736 77 75 69
-0.153428 1.66918 1.60836 -0.417216 0.00140882 -0.908807 46 44 38
-0.150803 1.66921 1.60791 -0.382996 -0.0218543 -0.923492 43 42 36
-0.148998 1.66918 1.60949 -0.361262 -0.170789 -0.91669 42 40 35
-0.111199 1.66952 1.61181 0.133882 -0.0475715 -0.989855 39 39 35
-0.107912 1.67154 1.61291 0.185659 -0.0219049 -0.98237 36 35 32
-0.106194 1.66855 1.61336 0.153887 -0.0438708 -0.987114 32 31 28
-0.102776 1.66855 1.61386 0.103656 -0.0801152 -0.991381 20 20 17
-0.0993349 1.66855 1.61412 0.108246 -0.144726 -0.983533 27 27 24
-0.095835 1.66854 1.61428 0.0736395 -0.0867806 -0.993502 25 24 21
-0.0925307 1.66854 1.6145 0.0606632 -0.103217 -0.992807 25 25 22
-0.0866489 1.66957 1.61505 0.0411177 0.0275414 -0.998775 20 20 17
-0.0831053 1.66956 1.615 0.0872305 -0.0428258 -0.995267 32 31 27
-0.0799823 1.67122 1.61515 0.0532525 -0.0431208 -0.99765 31 30 27
-0.0763004 1.67134 1.61549 0.0712276 -0.0281677 -0.997062 28 28 26
-0.0728592 1.67134 1.61585 0.104403 0.00200722 -0.994533 23 23 22
-0.0697454 1.67135 1.61626 0.034377 0.0220245 -0.999166 19 19 18
-0.0661098 1.67134 1.61618 0.0805937 -0.0597374 -0.994955 18 18 16
-0.0626056 1.67136 1.61643 0.12838 -0.0974995 -0.986921 18 18 16
-0.0590452 1.67136 1.61675 0.116341 -0.0979722 -0.988366 18 18 16
-0.055757 1.67136 1.61694 0.031483 -0.062751 -0.997533 24 23 22
-0.0524092 1.67136 1.61707 0.0334945 -0.0632444 -0.997436 33 32 29
-0.0489052 1.67146 1.61705 -0.00947997 -0.045604 -0.998915 21 20 18
-0.0455956 1.67154 1.61751 0.102976 -0.0204833 -0.994473 18 18 15
-0.0456018 1.67147 1.6175 0.103905 -0.0231073 -0.994319 18 18 15
-0.0418949 1.67153 1.61749 0.0408809 -0.0745851 -0.996376 20 20 17
-0.0379765 1.67145 1.6169 0.0967026 -0.0572455 -0.993666 18 19 16
-0.0380116 1.67134 1.61794 0.261296 -0.396488 -0.880069 19 19 16
-0.0347568 1.67128 1.61736 0.0446544 -0.210178 -0.976643 21 21 19
-0.0317106 1.67143 1.61787 0.104784 -0.0966066 -0.989792 23 22 20
-0.0282895 1.67126 1.61804 0.0355271 -0.0511049 -0.998061 21 20 19
-0.0249624 1.67141 1.618 0.0198827 0.012083 -0.999729 20 20 18
-0.0242449 1.67165 1.61808 -0.0210207 0.0199845 -0.999579 20 20 17
-0.0213716 1.67142 1.6183 -0.0929908 0.0338755 -0.995091 25 24 21
-0.0179888 1.67135 1.61775 -0.109607 0.0228228 -0.993713 34 33 29
-0.0146174 1.6717 1.61855 0.0143547 -0.070227 -0.997428 36 35 31
-0.0143644 1.67138 1.61806 0.233582 -0.0305375 -0.971857 36 35 31
0.0660134 1.66942 1.62072 0.0583996 -0.0787316 -0.995184 36 35 30
0.0660145 1.6694 1.62074 0.0510581 -0.0815245 -0.995363 36 35 30
0.0693869 1.66939 1.62074 0.0248913 -0.0871908 -0.995881 24 20 14
0.0727669 1.66939 1.62072 0.0143411 -0.0938924 -0.995479 28 23 16
0.0761331 1.66939 1.62072 -0.109518 -0.0354311 -0.993353 29 24 17
0.0855391 1.66943 1.62158 -0.526087 -0.338885 -0.779993 30 25 18
0.0893337 1.66943 1.61998 -0.479353 -0.444775 -0.756569 29 24 17
0.0893244 1.66946 1.61996 -0.481547 -0.445735 -0.754608 29 24 17
0.09333 1.66947 1.62093 -0.0219814 0.15681 -0.987384 29 24 17
0.0932902 1.66944 1.62094 -0.0213734 0.152428 -0.988083 29 24 17
0.0993312 1.66943 1.62003 -0.0146498 -0.0495671 -0.998663 23 20 13
0.102749 1.66943 1.61992 -0.0530232 -0.0439797 -0.997624 10 9 5
0.106251 1.66944 1.61983 -0.0727086 -0.0498668 -0.996106 2 2 1
0.109616 1.66954 1.61966 -0.067377 -0.00996833 -0.997678 1 2 0
0.113047 1.66954 1.61958 -0.0198458 -0.0865596 -0.996049 2 2 1
0.115878 1.66993 1.61948 -0.0179879 -0.097484 -0.995075 4 5 2
0.119251 1.66993 1.61933 -0.055128 -0.146042 -0.987741 16 14 9
0.122726 1.66993 1.61891 -0.136153 -0.0437384 -0.989722 26 21 15
0.126065 1.66993 1.61895 -0.0710321 -0.104962 -0.991936 29 25 18
0.129531 1.66992 1.61884 -0.0154696 -0.0428245 -0.998963 29 25 17
0.135847 1.66997 1.61846 -0.0853329 -0.137702 -0.986791 23 23 15
0.142606 1.6699 1.61786 -0.160195 -0.0746724 -0.984257 6 18 13
0.14548 1.66994 1.61838 -0.114489 -0.134879 -0.984226 5 18 13
-0.152188 1.6723 1.60656 -0.417685 -0.0484156 -0.907301 46 44 38
-0.150766 1.6724 1.6078 -0.38815 -0.0643578 -0.919346 44 42 37
-0.111386 1.67154 1.61223 0.0681649 -0.0132173 -0.997586 40 39 34
-0.109643 1.67461 1.61255 0.268042 -0.00426775 -0.963398 39 38 34
-0.106164 1.67461 1.6132 0.107396 -0.0106505 -0.994159 35 34 31
-0.102841 1.6746 1.61354 0.0120898 -0.0371153 -0.999238 33 32 30
-0.0950441 1.67248 1.61442 0.00157046 -0.0218045 -0.999761 28 26 24
-0.097886 1.67246 1.61395 0.104675 0.0301902 -0.994048 27 26 24
-0.09205 1.67249 1.61477 0.0164993 -0.0272176 -0.999493 27 26 23
-0.0885165 1.67247 1.61447 0.0389616 -0.158173 -0.986642 27 25 23
-0.0847953 1.67246 1.61466 0.0796474 -0.094194 -0.992363 32 31 28
-0.0814775 1.67246 1.61496 0.0954481 -0.0542265 -0.993956 35 34 31
